ply
format ascii 1.0
element vertex 710
property float x
property float y
property float z
property uchar red
property uchar green
property uchar blue
property float nx
property float ny
property float nz
end_header
-0.36158 -0.551924 1.98 173 158 170 0.749107 -0.12361 -0.650814
-0.361827 -0.539864 1.97879 173 158 170 0.720445 -0.047079 -0.691912
-0.361633 -0.533834 1.97879 173 158 170 0.702239 0.041141 -0.710751
-0.361535 -0.530819 1.97879 173 158 170 0.827534 0.159543 -0.53827
-0.361389 -0.467501 1.9818 173 158 170 0.843043 0.126675 -0.522716
-0.364954 -0.497652 1.97578 173 158 170 0.950134 -0.034159 -0.309964
-0.352535 -0.567 1.99289 173 158 170 0.933129 0.048288 -0.356285
-0.360714 -0.570015 1.97879 173 158 170 0.716388 0.156 -0.680038
-0.374913 -0.500667 1.9607 173 158 170 0.398867 -0.022232 -0.916739
-0.36158 -0.533834 1.97888 173 158 170 0.876217 0.045109 -0.479801
-0.36045 -0.524788 1.97879 173 158 170 0.813681 0.103348 -0.572051
-0.354156 -0.542879 1.99085 173 158 170 0.903778 -0.022495 -0.427409
-0.358223 -0.506698 1.98482 173 158 170 0.931736 -0.027063 -0.362127
-0.361293 -0.55494 1.97879 173 158 170 0.741719 -0.21303 -0.635981
-0.358565 -0.57303 1.98218 173 158 170 0.785477 0.154692 -0.599246
-0.360171 -0.521773 1.97879 173 158 170 0.856998 -0.006727 -0.515275
-0.36158 -0.55494 1.97853 173 158 170 0.694805 -0.098418 -0.712432
-0.361552 -0.512728 1.97879 173 158 170 0.864418 -0.048253 -0.500453
-0.361124 -0.506698 1.97879 173 158 170 0.925357 0.003829 -0.379077
-0.365262 -0.512728 1.97276 173 158 170 0.95428 0.073406 -0.289761
-0.360098 -0.542879 1.9818 173 158 170 0.877023 0.003993 -0.480433
-0.36158 -0.502577 1.97879 173 158 170 0.845719 -0.111317 -0.521888
-0.36122 -0.57303 1.97879 173 158 170 0.793492 0.046676 -0.606788
-0.358565 -0.509713 1.98437 173 158 170 0.838693 -0.054606 -0.54186
-0.357602 -0.563985 1.9818 173 158 170 0.781483 0.012448 -0.623803
-0.35555 -0.56097 1.98444 173 158 170 0.784615 -0.03509 -0.61899
-0.36024 -0.545894 1.9818 173 158 170 0.850029 0.028838 -0.525947
-0.360245 -0.503682 1.9818 173 158 170 0.883921 -0.053446 -0.464572
-0.361855 -0.500667 1.97879 173 158 170 0.810408 -0.076021 -0.580912
-0.358565 -0.494637 1.98446 173 158 170 0.833023 0.093517 -0.545277
-0.361495 -0.494637 1.97879 173 158 170 0.871148 0.239227 -0.428803
-0.359725 -0.551924 1.9818 173 158 170 0.740999 -0.095376 -0.664698
-0.360681 -0.491622 1.97879 173 158 170 0.905484 0.052472 -0.421124
-0.36158 -0.488579 1.97879 173 158 170 0.84131 -0.10823 -0.529607
-0.358989 -0.55494 1.9818 173 158 170 0.752557 -0.225923 -0.618561
-0.358565 -0.556568 1.9818 173 158 170 0.759282 -0.195596 -0.620671
-0.36131 -0.482576 1.97879 173 158 170 0.957524 0.001217 -0.288352
-0.36158 -0.579805 1.97879 173 158 170 0.742832 0.391913 -0.542775
-0.358775 -0.57303 1.9818 173 158 170 0.805459 0.1005 -0.584067
-0.360417 -0.500667 1.9818 173 158 170 0.875171 -0.042325 -0.481959
-0.358176 -0.557955 1.9818 173 158 170 0.760344 -0.139471 -0.63437
-0.358565 -0.488607 1.98432 173 158 170 0.910002 -0.063551 -0.409704
-0.357745 -0.56097 1.9818 173 158 170 0.764463 -0.079783 -0.639712
-0.357785 -0.567 1.9818 173 158 170 0.782173 0.08852 -0.616741
-0.358565 -0.571622 1.9818 173 158 170 0.777516 0.138789 -0.613357
-0.359114 -0.576045 1.9818 173 158 170 0.866598 0.077249 -0.492992
-0.36158 -0.469148 1.9818 173 158 170 0.858004 0.110664 -0.50158
-0.36158 -0.480674 1.97879 173 158 170 0.891798 -0.1628 -0.422128
-0.361705 -0.470516 1.9818 173 158 170 0.892212 0.055848 -0.448149
-0.359611 -0.512728 1.9818 173 158 170 0.84665 -0.098847 -0.522889
-0.363096 -0.476546 1.97879 173 158 170 0.845943 -0.229331 -0.481443
-0.363361 -0.473531 1.97879 173 158 170 0.878566 -0.01471 -0.477394
-0.359659 -0.488607 1.9818 173 158 170 0.872507 -0.100728 -0.478106
-0.362939 -0.467501 1.97879 173 158 170 0.873436 0.103676 -0.475774
-0.359636 -0.579061 1.9818 173 158 170 0.851699 0.261473 -0.454137
-0.358565 -0.506698 1.98442 173 158 170 0.855516 -0.012164 -0.517634
-0.361897 -0.485592 1.97879 173 158 170 0.84018 -0.034604 -0.541203
-0.358565 -0.470516 1.98817 173 158 170 0.915642 0.097176 -0.390072
-0.360528 -0.482576 1.9818 173 158 170 0.932146 -0.092544 -0.350058
-0.36158 -0.473531 1.98219 173 158 170 0.876393 0.00667 -0.48155
-0.363208 -0.470516 1.97879 173 158 170 0.895868 0.058634 -0.440434
-0.3615 -0.476546 1.9818 173 158 170 0.906378 -0.169857 -0.386817
-0.36158 -0.484216 1.97879 173 158 170 0.862523 0.131915 -0.488521
-0.352535 -0.56097 1.9925 173 158 170 0.935854 -0.003789 -0.352366
-0.361571 -0.488607 1.97879 173 158 170 0.876347 -0.158411 -0.454887
-0.359467 -0.491622 1.9818 173 158 170 0.902351 0.01449 -0.430757
-0.36158 -0.494927 1.97879 173 158 170 0.814067 0.18275 -0.55127
-0.361791 -0.473531 1.9818 173 158 170 0.888291 0.001316 -0.459279
-0.362074 -0.497652 1.97879 173 158 170 0.766514 0.004143 -0.642214
-0.356481 -0.57303 1.98482 173 158 170 0.853811 0.183279 -0.487253
-0.358565 -0.533834 1.9837 173 158 170 0.695422 0.029622 -0.717991
-0.361397 -0.503682 1.97879 173 158 170 0.929584 -0.08719 -0.358151
-0.36158 -0.476076 1.9818 173 158 170 0.89247 -0.078869 -0.444159
-0.361381 -0.515743 1.97879 173 158 170 0.838207 -0.114763 -0.53314
-0.360862 -0.479561 1.9818 173 158 170 0.913643 -0.147816 -0.37869
-0.358565 -0.527803 1.98249 173 158 170 0.776965 0.098035 -0.621864
-0.360078 -0.485592 1.9818 173 158 170 0.888127 -0.135865 -0.439058
-0.364595 -0.470516 1.97576 173 158 170 0.921899 0.001279 -0.387428
-0.358565 -0.524788 1.98219 173 158 170 0.854638 -0.001342 -0.519223
-0.361073 -0.527803 1.97879 173 158 170 0.7797 0.145165 -0.609094
-0.358565 -0.482576 1.9874 173 158 170 0.948002 -0.115675 -0.2965
-0.36158 -0.541182 1.97879 173 158 170 0.782424 -0.070346 -0.618761
-0.360261 -0.494637 1.9818 173 158 170 0.874633 0.14023 -0.464061
-0.353851 -0.548909 1.99085 173 158 170 0.90244 -0.063974 -0.426039
-0.360433 -0.497652 1.9818 173 158 170 0.841224 0.020518 -0.540298
-0.36242 -0.548909 1.97879 173 158 170 0.754296 0.046877 -0.654859
-0.354773 -0.524788 1.99085 173 158 170 0.949336 -0.063117 -0.307858
-0.360044 -0.506698 1.9818 173 158 170 0.898144 -0.022553 -0.439122
-0.36113 -0.579061 1.97879 173 158 170 0.860738 0.166262 -0.481131
-0.36158 -0.536849 1.97925 173 158 170 0.869058 0.014821 -0.494487
-0.360807 -0.576045 1.97879 173 158 170 0.81846 -0.012339 -0.57443
-0.36017 -0.509713 1.9818 173 158 170 0.893984 -0.019925 -0.447656
-0.362471 -0.551924 1.97879 173 158 170 0.769948 -0.136049 -0.623434
-0.35426 -0.536849 1.99085 173 158 170 0.922805 -0.00384 -0.385249
-0.356761 -0.488607 1.99085 173 158 170 0.971387 -0.086262 -0.221281
-0.357373 -0.482576 1.99085 173 158 170 0.964132 -0.07708 -0.253985
-0.357738 -0.476546 1.99085 173 158 170 0.955999 0.006136 -0.293304
-0.357341 -0.470516 1.99085 173 158 170 0.94144 0.11383 -0.317385
-0.359923 -0.567 1.97879 173 158 170 0.731944 0.080034 -0.676648
-0.353215 -0.567 1.99085 173 158 170 0.934752 0.064602 -0.349378
-0.360016 -0.563985 1.97879 173 158 170 0.72612 -0.041208 -0.686332
-0.356681 -0.551924 1.98482 173 158 170 0.85906 -0.101486 -0.501714
-0.360344 -0.56097 1.97879 173 158 170 0.717063 -0.064925 -0.693978
-0.355701 -0.512728 1.99085 173 158 170 0.953565 -0.073351 -0.292118
-0.360478 -0.557955 1.97879 173 158 170 0.724161 -0.117472 -0.679552
-0.356106 -0.506698 1.99085 173 158 170 0.957026 -0.046653 -0.286225
-0.36158 -0.576045 1.97808 173 158 170 0.629495 -0.018065 -0.776794
-0.356923 -0.524788 1.98482 173 158 170 0.915147 -0.038407 -0.401287
-0.36158 -0.539864 1.97918 173 158 170 0.870403 -0.051038 -0.489688
-0.36158 -0.548909 1.98001 173 158 170 0.812411 0.060966 -0.579889
-0.36158 -0.57303 1.97852 173 158 170 0.621917 -0.052657 -0.78131
-0.358565 -0.557955 1.98134 173 158 170 0.779531 -0.09799 -0.618652
-0.35743 -0.542879 1.98482 173 158 170 0.824239 -0.001358 -0.56624
-0.357212 -0.536849 1.98482 173 158 170 0.846861 0.026078 -0.531175
-0.36158 -0.482576 1.97832 173 158 170 0.781002 0.001373 -0.624527
-0.36158 -0.467501 1.98145 173 158 170 0.885288 0.157417 -0.437589
-0.36158 -0.545894 1.97862 173 158 170 0.603653 0.061364 -0.794882
-0.36158 -0.488607 1.97878 173 158 170 0.792601 -0.213925 -0.570981
-0.364595 -0.515743 1.97544 173 158 170 0.936955 0.07819 -0.34059
-0.36158 -0.479561 1.98036 173 158 170 0.911454 -0.211665 -0.352774
-0.367383 -0.500667 1.96673 173 158 170 0.928371 -0.059596 -0.366846
-0.36158 -0.557955 1.978 173 158 170 0.640839 -0.067684 -0.764686
-0.358565 -0.576045 1.98295 173 158 170 0.820723 0.172547 -0.544648
-0.36158 -0.476546 1.98164 173 158 170 0.876686 -0.206192 -0.434634
-0.36158 -0.491622 1.97745 173 158 170 0.793167 -0.006873 -0.608965
-0.35555 -0.567 1.98467 173 158 170 0.793492 0.046676 -0.606788
-0.358565 -0.563985 1.98066 173 158 170 0.779928 -0.001376 -0.625868
-0.36158 -0.518758 1.97749 173 158 170 0.590543 -0.145019 -0.793869
-0.36158 -0.485592 1.97952 173 158 170 0.870218 -0.071238 -0.48749
-0.36158 -0.497652 1.97973 173 158 170 0.894193 0.033515 -0.446426
-0.35555 -0.563985 1.98453 173 158 170 0.807852 0.023557 -0.588914
-0.364595 -0.579061 1.97522 173 158 170 0.929435 0.001268 -0.368984
-0.358565 -0.567 1.98083 173 158 170 0.800766 0.05244 -0.596677
-0.358565 -0.570015 1.98144 173 158 170 0.784323 0.155058 -0.600662
-0.358565 -0.503682 1.9845 173 158 170 0.837434 -0.026127 -0.545914
-0.358565 -0.497652 1.9845 173 158 170 0.793899 0.023636 -0.60759
-0.364796 -0.582076 1.97578 173 158 170 0.940679 0.026804 -0.338236
-0.354441 -0.530819 1.99085 173 158 170 0.945541 -0.04747 -0.322023
-0.358144 -0.491622 1.98482 173 158 170 0.960768 -0.051492 -0.272532
-0.358565 -0.55494 1.98245 173 158 170 0.721653 -0.199343 -0.662932
-0.36158 -0.500667 1.97937 173 158 170 0.899846 -0.081303 -0.428564
-0.36158 -0.470516 1.98205 173 158 170 0.863441 0.04269 -0.502641
-0.358803 -0.485592 1.98482 173 158 170 0.927496 -0.159913 -0.337903
-0.358565 -0.545894 1.98396 173 158 170 0.73027 -0.035313 -0.682245
-0.358565 -0.542879 1.98388 173 158 170 0.759123 0.009715 -0.650875
-0.359316 -0.482576 1.98482 173 158 170 0.929605 -0.141851 -0.340167
-0.358565 -0.536849 1.98378 173 158 170 0.734374 0.020982 -0.678421
-0.35546 -0.567 1.98482 173 158 170 0.93205 0.040298 -0.360081
-0.359735 -0.479561 1.98482 173 158 170 0.930687 -0.127098 -0.343028
-0.358565 -0.530819 1.9836 173 158 170 0.709315 0.152752 -0.688142
-0.358565 -0.521773 1.98217 173 158 170 0.883928 -0.042092 -0.465725
-0.355309 -0.56097 1.98482 173 158 170 0.934701 -0.003794 -0.355414
-0.355705 -0.557955 1.98482 173 158 170 0.885711 -0.111597 -0.450625
-0.365053 -0.476546 1.97578 173 158 170 0.926359 0.035277 -0.374986
-0.364831 -0.473531 1.97578 173 158 170 0.943859 0.071801 -0.322452
-0.364642 -0.467501 1.97578 173 158 170 0.917945 0.001284 -0.396706
-0.358565 -0.518758 1.98274 173 158 170 0.875805 -0.085479 -0.475036
-0.358565 -0.515743 1.98338 173 158 170 0.858755 -0.0863 -0.505067
-0.358282 -0.488607 1.98482 173 158 170 0.960305 -0.085902 -0.265398
-0.356798 -0.530819 1.98482 173 158 170 0.866867 0.025775 -0.497872
-0.358565 -0.486903 1.98482 173 158 170 0.944327 -0.147678 -0.294002
-0.36158 -0.56097 1.97803 173 158 170 0.593874 -0.020765 -0.80429
-0.365403 -0.506698 1.97276 173 158 170 0.951502 -0.016169 -0.307217
-0.364595 -0.470673 1.97578 173 158 170 0.928308 0.045956 -0.36896
-0.365381 -0.503682 1.97276 173 158 170 0.958552 -0.062211 -0.278044
-0.365856 -0.500667 1.97276 173 158 170 0.966397 -0.071446 -0.246926
-0.357263 -0.576045 1.98482 173 158 170 0.871673 0.19091 -0.451376
-0.355928 -0.570015 1.98482 173 158 170 0.89043 0.135345 -0.43453
-0.35555 -0.56789 1.98482 173 158 170 0.860216 0.134907 -0.49176
-0.355381 -0.563985 1.98482 173 158 170 0.934515 0.024356 -0.35509
-0.35788 -0.512728 1.98482 173 158 170 0.923412 -0.065481 -0.378184
-0.375823 -0.494637 1.9607 173 158 170 0.462269 -0.103198 -0.880714
-0.364595 -0.473531 1.97638 173 158 170 0.90088 0.064057 -0.429315
-0.360185 -0.476546 1.98482 173 158 170 0.916094 -0.054832 -0.397197
-0.3674 -0.497652 1.96673 173 158 170 0.944548 -0.024025 -0.327494
-0.367114 -0.503682 1.96673 173 158 170 0.921526 -0.035393 -0.3867
-0.365801 -0.497652 1.97276 173 158 170 0.951732 0.044473 -0.30369
-0.365576 -0.494637 1.97276 173 158 170 0.946163 0.068978 -0.316255
-0.359419 -0.467501 1.98482 173 158 170 0.878735 0.145734 -0.454518
-0.35555 -0.558678 1.98482 173 158 170 0.853595 -0.119879 -0.506957
-0.356224 -0.55494 1.98482 173 158 170 0.818718 -0.153603 -0.553269
-0.357589 -0.515743 1.98482 173 158 170 0.929474 -0.08158 -0.359753
-0.365933 -0.506698 1.96975 173 158 170 0.96029 -0.018396 -0.278398
-0.360531 -0.518758 1.97879 173 158 170 0.843545 -0.142302 -0.517863
-0.366177 -0.500667 1.96975 173 158 170 0.966344 -0.082108 -0.243797
-0.35712 -0.521773 1.98482 173 158 170 0.920496 -0.060119 -0.3861
-0.359945 -0.470516 1.98482 173 158 170 0.883153 0.082316 -0.461807
-0.356371 -0.494637 1.99085 173 158 170 0.973492 -0.044856 -0.224279
-0.365767 -0.473531 1.97276 173 158 170 0.915987 0.0688 -0.395264
-0.357167 -0.548909 1.98482 173 158 170 0.833613 -0.063473 -0.54869
-0.365265 -0.509713 1.97276 173 158 170 0.974365 -0.025106 -0.223566
-0.356859 -0.527803 1.98482 173 158 170 0.912495 -0.024946 -0.408325
-0.494246 -0.342728 1.90643 32 204 187 -0.173414 0.493562 -0.852247
-0.494246 -0.346624 1.90643 32 204 187 -0.026652 -0.177292 -0.983797
-0.476155 -0.334835 1.89503 32 204 187 -0.095363 -0.0075 -0.995414
-0.507693 -0.328805 1.9004 32 204 187 -0.393361 0.225409 -0.891324
-0.506306 -0.29194 1.9004 32 204 187 0.017723 -0.527585 -0.849317
-0.476155 -0.33182 1.89485 32 204 187 -0.038613 0.032352 -0.99873
-0.476155 -0.328805 1.89459 32 204 187 0.0075 0.095363 -0.995414
-0.482185 -0.328805 1.89521 32 204 187 -0.150518 0.097536 -0.983784
-0.442989 -0.343881 1.89662 32 204 187 0.031084 0.160024 -0.986624
-0.488215 -0.349911 1.90281 32 204 187 -0.667386 0.082878 -0.740086
-0.509321 -0.343881 1.90393 32 204 187 0.054221 0.276148 -0.959584
-0.446004 -0.340865 1.89658 32 204 187 -0.072036 0.149976 -0.986062
-0.461079 -0.310714 1.89735 32 204 187 0.197556 -0.339682 -0.919558
-0.503291 -0.340865 1.90332 32 204 187 0.094362 0.392492 -0.914902
-0.506306 -0.340865 1.90272 32 204 187 0.008848 0.35014 -0.936656
-0.458064 -0.349911 1.89572 32 204 187 0.059128 0.463401 -0.884174
-0.509321 -0.340865 1.90325 32 204 187 -0.04305 0.247228 -0.968001
-0.500276 -0.340865 1.90427 32 204 187 0.282985 0.333359 -0.899328
-0.497261 -0.343881 1.90642 32 204 187 0.29813 0.187198 -0.935989
-0.488215 -0.342047 1.9004 32 204 187 -0.679544 0.251859 -0.689048
-0.500276 -0.33785 1.90204 32 204 187 0.057209 0.514884 -0.855349
-0.509321 -0.349911 1.90548 32 204 187 0.120422 0.244729 -0.962084
-0.506306 -0.349911 1.90581 32 204 187 0.033348 0.270488 -0.962146
-0.46711 -0.316744 1.89443 32 204 187 -0.009332 0.052883 -0.998557
-0.500276 -0.346896 1.90603 32 204 187 0.09049 0.031617 -0.995395
-0.500276 -0.349911 1.9054 32 204 187 -0.153902 -0.045129 -0.987055
-0.491231 -0.340865 1.90353 32 204 187 -0.454601 0.435048 -0.77722
-0.491231 -0.343881 1.90489 32 204 187 -0.577404 0.320065 -0.751108
-0.503291 -0.33785 1.90174 32 204 187 0.03301 0.407999 -0.912386
-0.491231 -0.346896 1.90563 32 204 187 -0.431354 -0.092928 -0.897384
-0.509321 -0.33785 1.90256 32 204 187 -0.163738 0.075296 -0.983626
-0.506306 -0.334835 1.90159 32 204 187 -0.249631 0.143967 -0.957579
-0.487552 -0.343881 1.9004 32 204 187 -0.673918 0.247787 -0.696014
-0.506306 -0.33182 1.90092 32 204 187 -0.31524 0.221096 -0.922898
-0.449019 -0.343881 1.89698 32 204 187 -0.210549 0.16347 -0.963819
-0.509321 -0.32579 1.90078 32 204 187 -0.459947 0.06768 -0.885363
-0.449019 -0.340865 1.89649 32 204 187 -0.005828 0.20865 -0.977973
-0.452034 -0.340865 1.89624 32 204 187 0.131978 0.281286 -0.950505
-0.500276 -0.334418 1.9004 32 204 187 -0.001175 0.226747 -0.973953
-0.476155 -0.313729 1.89455 32 204 187 -0.151965 -0.156988 -0.975839
-0.476155 -0.310714 1.89504 32 204 187 -0.166977 -0.192865 -0.966914
-0.4852 -0.33182 1.89608 32 204 187 -0.230081 0.192407 -0.953961
-0.509321 -0.289608 1.90174 32 204 187 0.101238 -0.500484 -0.859806
-0.4852 -0.328805 1.8957 32 204 187 -0.139129 0.114933 -0.983582
-0.439973 -0.334835 1.89522 32 204 187 0.216988 -0.169645 -0.96132
-0.488215 -0.328805 1.89597 32 204 187 -0.181874 0.192342 -0.964327
-0.446004 -0.33785 1.89612 32 204 187 -0.128947 0.210656 -0.969018
-0.47917 -0.307699 1.89616 32 204 187 -0.130482 -0.162792 -0.977995
-0.488215 -0.322775 1.89558 32 204 187 -0.242821 0.123358 -0.962196
-0.488215 -0.310714 1.89538 32 204 187 0.175734 -0.215373 -0.96059
-0.491231 -0.32579 1.89649 32 204 187 -0.200952 0.122593 -0.9719
-0.488912 -0.349911 1.90341 32 204 187 -0.585094 0.01239 -0.810871
-0.488713 -0.346896 1.90341 32 204 187 -0.65825 0.041052 -0.751679
-0.4852 -0.307699 1.89677 32 204 187 -0.032014 -0.205128 -0.978211
-0.491231 -0.340694 1.90341 32 204 187 -0.484911 0.471671 -0.736469
-0.488215 -0.307699 1.89687 32 204 187 0.283626 -0.364661 -0.886893
-0.497261 -0.322775 1.89672 32 204 187 -0.139879 0.147306 -0.97915
-0.506306 -0.342159 1.90341 32 204 187 0.043293 0.371269 -0.927516
-0.449019 -0.33785 1.89572 32 204 187 0.146785 0.325122 -0.934211
-0.476155 -0.33785 1.89482 32 204 187 -0.050192 -0.099268 -0.993794
-0.494246 -0.31976 1.89584 32 204 187 -0.113882 0.157966 -0.980856
-0.497261 -0.307699 1.89667 32 204 187 -0.183591 -0.046194 -0.981917
-0.47917 -0.346896 1.89827 32 204 187 -0.268825 -0.001205 -0.963188
-0.449019 -0.349911 1.89856 32 204 187 0.195462 0.346695 -0.917386
-0.491231 -0.316744 1.89544 32 204 187 -0.073107 0.046919 -0.99622
-0.506306 -0.316744 1.89843 32 204 187 -0.304777 0.063013 -0.950337
-0.452034 -0.349911 1.89759 32 204 187 0.304607 0.113064 -0.945744
-0.494246 -0.343881 1.90682 32 204 187 0.000978 0.000978 -0.999999
-0.449019 -0.346896 1.89754 32 204 187 -0.101072 0.290088 -0.951648
-0.482185 -0.343881 1.89868 32 204 187 -0.037733 0.239784 -0.970093
-0.500276 -0.298654 1.89855 32 204 187 -0.105685 -0.190233 -0.976034
-0.4852 -0.349911 1.89999 32 204 187 -0.366612 0.213011 -0.905661
-0.4852 -0.346896 1.89939 32 204 187 -0.34239 0.176126 -0.922902
-0.497261 -0.316744 1.89593 32 204 187 -0.205578 0.049291 -0.977399
-0.506306 -0.298654 1.89855 32 204 187 0.02428 -0.176899 -0.983929
-0.500276 -0.292623 1.90036 32 204 187 0.028707 -0.295806 -0.954817
-0.488215 -0.334835 1.89848 32 204 187 -0.493797 0.386943 -0.778742
-0.503291 -0.295639 1.8994 32 204 187 0.052799 -0.232072 -0.971265
-0.494246 -0.33182 1.8991 32 204 187 -0.211569 0.424618 -0.880306
-0.506306 -0.295639 1.89891 32 204 187 0.068412 -0.237575 -0.968957
-0.503291 -0.292623 1.90019 32 204 187 0.052245 -0.302001 -0.951875
-0.488215 -0.304684 1.89746 32 204 187 -0.013401 -0.044328 -0.998927
-0.497261 -0.33182 1.89978 32 204 187 -0.121034 0.393708 -0.911233
-0.506306 -0.313729 1.89843 32 204 187 -0.344234 -0.106645 -0.932807
-0.503291 -0.310714 1.89755 32 204 187 -0.460352 -0.003957 -0.887728
-0.503291 -0.33182 1.89994 32 204 187 -0.102881 0.327347 -0.939287
-0.509321 -0.316744 1.89922 32 204 187 -0.325744 0.060996 -0.943489
-0.503291 -0.328805 1.8989 32 204 187 -0.20097 0.281358 -0.938322
-0.509321 -0.313729 1.89954 32 204 187 -0.379507 -0.150956 -0.912791
-0.509321 -0.310714 1.90022 32 204 187 -0.348259 -0.109763 -0.93095
-0.503291 -0.31749 1.89738 32 204 187 -0.269662 0.077959 -0.959794
-0.503291 -0.307699 1.8974 32 204 187 -0.508422 -0.017625 -0.860928
-0.506306 -0.304684 1.89806 32 204 187 -0.2323 0.210565 -0.949578
-0.509321 -0.307699 1.89995 32 204 187 -0.239905 0.199243 -0.950131
-0.506306 -0.301669 1.8981 32 204 187 -0.172665 -0.080899 -0.981653
-0.448223 -0.346896 1.89738 32 204 187 -0.061146 0.326543 -0.943202
-0.488215 -0.301669 1.89759 32 204 187 0.08286 -0.322234 -0.943027
-0.506306 -0.328805 1.89976 32 204 187 -0.368427 0.266998 -0.89049
-0.503291 -0.32579 1.89819 32 204 187 -0.190041 0.213962 -0.958178
-0.491231 -0.301669 1.89743 32 204 187 0.118909 -0.305956 -0.944591
-0.488215 -0.33785 1.89952 32 204 187 -0.578622 0.20106 -0.790425
-0.497261 -0.301669 1.8977 32 204 187 -0.122743 -0.167376 -0.978223
-0.503291 -0.322775 1.89755 32 204 187 -0.27578 0.091927 -0.956815
-0.503291 -0.31976 1.8975 32 204 187 -0.237615 0.065935 -0.969119
-0.500276 -0.343881 1.90493 32 204 187 0.289775 0.269592 -0.918341
-0.506306 -0.322775 1.89936 32 204 187 -0.458187 0.039196 -0.887991
-0.506306 -0.31976 1.89882 32 204 187 -0.367907 0.131891 -0.920461
-0.509321 -0.346896 1.90482 32 204 187 0.050833 0.254164 -0.965824
-0.509321 -0.31976 1.89981 32 204 187 -0.330794 0.219097 -0.917917
-0.470125 -0.348477 1.89738 32 204 187 -0.237958 0.558346 -0.794749
-0.477466 -0.343881 1.89738 32 204 187 -0.59473 0.225159 -0.771751
-0.493685 -0.334835 1.9004 32 204 187 -0.13734 0.475631 -0.868857
-0.486665 -0.334835 1.89738 32 204 187 -0.423598 0.262661 -0.866934
-0.488215 -0.333188 1.89738 32 204 187 -0.337342 0.380473 -0.86107
-0.494246 -0.33477 1.9004 32 204 187 -0.131688 0.364569 -0.921818
-0.497261 -0.333552 1.9004 32 204 187 -0.071214 0.306866 -0.949085
-0.503291 -0.332902 1.9004 32 204 187 -0.185013 0.307428 -0.933412
-0.506306 -0.330326 1.9004 32 204 187 -0.311176 0.32011 -0.894818
-0.488606 -0.340865 1.9004 32 204 187 -0.672601 0.254797 -0.694757
-0.489262 -0.33785 1.9004 32 204 187 -0.534746 0.268157 -0.801335
-0.508759 -0.32579 1.9004 32 204 187 -0.509396 0.107619 -0.853776
-0.510676 -0.31976 1.9004 32 204 187 -0.389324 0.218903 -0.894711
-0.509321 -0.321672 1.9004 32 204 187 -0.363277 0.229054 -0.903086
-0.497261 -0.292848 1.9004 32 204 187 0.122956 -0.499058 -0.857801
-0.494246 -0.346896 1.90618 32 204 187 -0.003688 -0.303658 -0.952774
-0.464094 -0.33182 1.89491 32 204 187 0.108354 0.193045 -0.975189
-0.47314 -0.334835 1.89464 32 204 187 -0.126333 -0.025714 -0.991655
-0.491231 -0.349911 1.90487 32 204 187 -0.419096 -0.092671 -0.9032
-0.482185 -0.334835 1.89576 32 204 187 -0.270131 0.056539 -0.961162
-0.47314 -0.33182 1.89467 32 204 187 -0.123218 -0.044087 -0.9914
-0.47314 -0.328805 1.89492 32 204 187 -0.024146 0.051441 -0.998384
-0.446004 -0.346896 1.89719 32 204 187 0.001182 0.240031 -0.970765
-0.503746 -0.313729 1.89738 32 204 187 -0.372469 -0.01152 -0.927973
-0.503291 -0.312634 1.89738 32 204 187 -0.343466 -0.103713 -0.933421
-0.503247 -0.307699 1.89738 32 204 187 -0.195664 0.008104 -0.980637
-0.439973 -0.343881 1.8969 32 204 187 0.096299 0.310005 -0.945845
-0.497261 -0.302532 1.89738 32 204 187 -0.091145 -0.315704 -0.94447
-0.4852 -0.3381 1.89738 32 204 187 -0.453913 0.241379 -0.857729
-0.47917 -0.328805 1.89478 32 204 187 -0.098854 0.103506 -0.989704
-0.439973 -0.340865 1.89614 32 204 187 0.063481 0.314813 -0.947029
-0.446004 -0.343881 1.89653 32 204 187 -0.037501 0.137503 -0.989791
-0.503291 -0.302449 1.89738 32 204 187 -0.04141 -0.190484 -0.980816
-0.464094 -0.340865 1.89326 32 204 187 -0.005023 -0.025117 -0.999672
-0.47314 -0.340865 1.89423 32 204 187 -0.161437 0.04065 -0.986045
-0.464094 -0.33785 1.89349 32 204 187 0.103735 -0.129967 -0.986077
-0.442989 -0.340865 1.8965 32 204 187 -0.07127 0.304518 -0.949837
-0.455049 -0.349911 1.89601 32 204 187 0.288687 0.262835 -0.92064
-0.470125 -0.31976 1.89475 32 204 187 -0.025471 -0.019358 -0.999488
-0.47917 -0.32579 1.89439 32 204 187 -0.125177 0.110871 -0.98592
-0.482185 -0.32579 1.89489 32 204 187 -0.141031 0.158504 -0.977234
-0.47314 -0.31976 1.89458 32 204 187 0.104588 -0.027523 -0.994135
-0.47314 -0.316744 1.89448 32 204 187 0.05867 0.078596 -0.995179
-0.455049 -0.340865 1.89538 32 204 187 0.322216 0.24419 -0.91463
-0.47314 -0.310714 1.89471 32 204 187 0.043681 -0.395779 -0.917306
-0.47917 -0.313729 1.89502 32 204 187 -0.128629 -0.237768 -0.962767
-0.488215 -0.33182 1.89678 32 204 187 -0.2611 0.295721 -0.918899
-0.47917 -0.310714 1.89579 32 204 187 -0.148233 -0.20237 -0.968025
-0.439973 -0.33785 1.8945 32 204 187 0.252892 0.069199 -0.965017
-0.482185 -0.310714 1.89609 32 204 187 -0.020556 -0.247886 -0.968571
-0.446004 -0.33182 1.89388 32 204 187 0.257472 0.090948 -0.961996
-0.47314 -0.307699 1.89565 32 204 187 0.236081 -0.437577 -0.867636
-0.446004 -0.328805 1.8941 32 204 187 0.12524 -0.018841 -0.991947
-0.452034 -0.334835 1.89372 32 204 187 -0.094544 0.144808 -0.984933
-0.46711 -0.328805 1.89358 32 204 187 -0.050049 0.04366 -0.997792
-0.476155 -0.307699 1.89574 32 204 187 -0.021858 -0.361305 -0.932192
-0.470125 -0.328805 1.89409 32 204 187 -0.210073 -0.012909 -0.977601
-0.442989 -0.33785 1.89468 32 204 187 -0.152322 0.214813 -0.964704
-0.47314 -0.33785 1.89419 32 204 187 -0.186533 -0.031675 -0.981938
-0.476155 -0.304684 1.89725 32 204 187 0.109313 -0.469904 -0.875923
-0.455049 -0.328805 1.89384 32 204 187 -0.076385 0.060887 -0.995218
-0.446004 -0.334835 1.89533 32 204 187 -0.015997 0.284261 -0.958613
-0.458064 -0.328805 1.89412 32 204 187 0.058237 0.174711 -0.982896
-0.4852 -0.32579 1.89532 32 204 187 -0.121954 0.161374 -0.979329
-0.488215 -0.32579 1.89563 32 204 187 -0.211081 0.093675 -0.97297
-0.458064 -0.316744 1.89475 32 204 187 0.056506 -0.475478 -0.877911
-0.461079 -0.316744 1.8948 32 204 187 0.165822 -0.369911 -0.914149
-0.47917 -0.304684 1.89693 32 204 187 0.053674 -0.354774 -0.93341
-0.461079 -0.328805 1.89383 32 204 187 0.071748 0.25049 -0.965457
-0.458064 -0.313729 1.89621 32 204 187 0.138245 -0.496225 -0.857117
-0.482185 -0.304684 1.8966 32 204 187 -0.069226 -0.146665 -0.986761
-0.4852 -0.310714 1.89568 32 204 187 0.107754 -0.361455 -0.926142
-0.461079 -0.313729 1.89625 32 204 187 0.173428 -0.432842 -0.88463
-0.439973 -0.33182 1.89572 32 204 187 0.352001 0.02432 -0.935683
-0.494246 -0.310714 1.89525 32 204 187 -0.388766 -0.068606 -0.918779
-0.497261 -0.32579 1.89737 32 204 187 -0.152916 0.220878 -0.963239
-0.439973 -0.328805 1.89522 32 204 187 0.398462 -0.032876 -0.916595
-0.464094 -0.316744 1.89432 32 204 187 0.001158 -0.207235 -0.97829
-0.491231 -0.322775 1.89615 32 204 187 -0.165612 0.130746 -0.977486
-0.494246 -0.322775 1.89643 32 204 187 -0.101365 0.167314 -0.980679
-0.4852 -0.304684 1.89723 32 204 187 -0.19962 -0.218376 -0.95523
-0.442989 -0.33182 1.89441 32 204 187 0.376116 0.150728 -0.914231
-0.46711 -0.346896 1.89513 32 204 187 -0.336643 0.45676 -0.823433
-0.491231 -0.307699 1.8947 32 204 187 0.140882 -0.416953 -0.897943
-0.452034 -0.32579 1.89393 32 204 187 -0.02718 0.00302 -0.999626
-0.470125 -0.346896 1.89632 32 204 187 -0.201723 0.46471 -0.862179
-0.488215 -0.31976 1.89508 32 204 187 -0.216421 0.091322 -0.97202
-0.491231 -0.304684 1.89666 32 204 187 0.253153 -0.365665 -0.895658
-0.494246 -0.304684 1.89648 32 204 187 -0.0608 -0.319521 -0.945627
-0.452034 -0.33785 1.89541 32 204 187 0.059538 0.369134 -0.927467
-0.476155 -0.346896 1.89658 32 204 187 -0.250506 0.320011 -0.913696
-0.500276 -0.313729 1.89657 32 204 187 -0.224512 0.005877 -0.974454
-0.488215 -0.316744 1.89501 32 204 187 -0.164435 -0.04315 -0.985444
-0.488215 -0.313729 1.89559 32 204 187 -0.041927 0.007158 -0.999095
-0.491231 -0.31976 1.8955 32 204 187 -0.113292 0.120447 -0.986234
-0.500276 -0.310714 1.89656 32 204 187 -0.151972 -0.047564 -0.98724
-0.476155 -0.340865 1.89458 32 204 187 -0.224619 0.221896 -0.948846
-0.452034 -0.322775 1.89373 32 204 187 0.061247 -0.085746 -0.994433
-0.455049 -0.32579 1.89413 32 204 187 0.055093 0.052933 -0.997077
-0.461079 -0.32579 1.89315 32 204 187 0.035915 0.163354 -0.985914
-0.503291 -0.313729 1.89721 32 204 187 -0.228306 -0.008281 -0.973554
-0.455049 -0.334835 1.89485 32 204 187 -0.123381 0.09048 -0.988226
-0.482185 -0.322775 1.89429 32 204 187 0.068738 0.184508 -0.980424
-0.455049 -0.33182 1.89476 32 204 187 -0.053496 0.119513 -0.99139
-0.47917 -0.340865 1.89601 32 204 187 -0.391373 0.501801 -0.771377
-0.47917 -0.33785 1.89457 32 204 187 -0.245797 0.12615 -0.961078
-0.458064 -0.334835 1.89502 32 204 187 0.092647 0.003195 -0.995694
-0.476155 -0.316744 1.89404 32 204 187 0.079748 -0.112109 -0.990491
-0.461079 -0.31976 1.89341 32 204 187 0.001208 -0.271689 -0.962384
-0.461079 -0.343881 1.89333 32 204 187 0.085566 0.127762 -0.988107
-0.482185 -0.340865 1.89709 32 204 187 -0.33723 0.374187 -0.863863
-0.491231 -0.313729 1.89522 32 204 187 -0.021028 0.118421 -0.992741
-0.458064 -0.33182 1.8946 32 204 187 -0.014236 0.114987 -0.993265
-0.470125 -0.313729 1.89405 32 204 187 -0.017321 -0.025472 -0.999525
-0.461079 -0.33182 1.89502 32 204 187 0.029664 -0.019435 -0.999371
-0.4852 -0.33785 1.89732 32 204 187 -0.403911 0.183859 -0.896132
-0.497261 -0.313729 1.89592 32 204 187 -0.184406 -0.051158 -0.981518
-0.500276 -0.304684 1.89686 32 204 187 -0.102437 -0.086323 -0.990987
-0.439973 -0.344784 1.89738 32 204 187 0.160423 0.42924 -0.888829
-0.446004 -0.347327 1.89738 32 204 187 -0.025203 0.433758 -0.900677
-0.443598 -0.346896 1.89738 32 204 187 0.070255 0.282299 -0.956751
-0.452671 -0.349911 1.89738 32 204 187 0.375307 0.147593 -0.915074
-0.449019 -0.346062 1.89738 32 204 187 -0.157843 0.135471 -0.978127
-0.449931 -0.343881 1.89738 32 204 187 -0.209036 0.13722 -0.968233
-0.4852 -0.31976 1.89406 32 204 187 -0.160219 0.00112 -0.987081
-0.470125 -0.343046 1.89437 32 204 187 -0.118502 0.299583 -0.946682
-0.474558 -0.340865 1.89437 32 204 187 -0.209442 0.247771 -0.945909
-0.464094 -0.331952 1.89437 32 204 187 0.177109 -0.255524 -0.950442
-0.46525 -0.33182 1.89437 32 204 187 0.256516 -0.058811 -0.964749
-0.476155 -0.347999 1.89738 32 204 187 -0.020534 0.543477 -0.839173
-0.482185 -0.302662 1.89738 32 204 187 0.044485 -0.435412 -0.899132
-0.488215 -0.305418 1.89738 32 204 187 0.069101 -0.195181 -0.97833
-0.476155 -0.327241 1.89437 32 204 187 0.014433 0.129895 -0.991423
-0.485316 -0.304684 1.89738 32 204 187 -0.081508 -0.142935 -0.98637
-0.4852 -0.303639 1.89738 32 204 187 -0.025714 -0.126333 -0.991655
-0.471136 -0.32579 1.89437 32 204 187 -0.039004 0.043221 -0.998304
-0.46711 -0.32223 1.89437 32 204 187 -0.085418 0.122861 -0.988741
-0.488558 -0.304684 1.89738 32 204 187 0.169154 -0.136576 -0.976081
-0.470125 -0.322555 1.89437 32 204 187 -0.011745 -0.086485 -0.996184
-0.491231 -0.301835 1.89738 32 204 187 0.088243 -0.21253 -0.973162
-0.494246 -0.301779 1.89738 32 204 187 -0.039145 -0.299268 -0.953366
-0.458064 -0.339496 1.89437 32 204 187 0.288147 -0.092572 -0.953101
-0.494246 -0.327758 1.89738 32 204 187 -0.174367 0.258172 -0.950233
-0.497261 -0.325836 1.89738 32 204 187 -0.191199 0.302847 -0.933663
-0.442989 -0.327321 1.89437 32 204 187 0.244851 -0.137483 -0.959764
-0.464545 -0.316744 1.89437 32 204 187 -0.03631 -0.18155 -0.982711
-0.452034 -0.336157 1.89437 32 204 187 0.030531 0.420798 -0.90664
-0.482185 -0.341322 1.89738 32 204 187 -0.160073 0.552027 -0.818317
-0.483198 -0.340865 1.89738 32 204 187 -0.235209 0.297932 -0.925156
-0.459059 -0.33785 1.89437 32 204 187 0.211774 -0.174944 -0.961533
-0.455049 -0.330863 1.89437 32 204 187 -0.065935 0.237615 -0.969119
-0.500276 -0.303543 1.89738 32 204 187 -0.021362 -0.315402 -0.948718
-0.497372 -0.32579 1.89738 32 204 187 -0.104657 0.259704 -0.96
-0.504369 -0.304684 1.89738 32 204 187 -0.364633 0.110619 -0.924557
-0.46711 -0.340865 1.89349 32 204 187 -0.102256 0.111659 -0.988472
-0.470125 -0.340865 1.89372 32 204 187 -0.117799 0.144516 -0.982466
-0.464094 -0.334835 1.8939 32 204 187 0.137249 -0.125103 -0.982605
-0.46711 -0.33785 1.89345 32 204 187 0.001003 -0.027071 -0.999633
-0.458064 -0.343881 1.89398 32 204 187 0.262925 0.038266 -0.964057
-0.458064 -0.340865 1.89417 32 204 187 0.283873 -0.049205 -0.957599
-0.461079 -0.340865 1.8933 32 204 187 0.1638 -0.09828 -0.981586
-0.46711 -0.33182 1.89352 32 204 187 -0.036235 -0.023812 -0.99906
-0.442989 -0.328805 1.89421 32 204 187 0.072063 0.001044 -0.9974
-0.470125 -0.33182 1.89413 32 204 187 -0.203293 -0.022327 -0.978863
-0.447004 -0.322775 1.89437 32 204 187 0.23938 -0.256178 -0.93652
-0.461079 -0.33785 1.89389 32 204 187 0.128962 -0.179044 -0.975352
-0.449019 -0.33182 1.89276 32 204 187 0.043483 0.105921 -0.993423
-0.452034 -0.33182 1.89351 32 204 187 -0.203543 0.139536 -0.969072
-0.452034 -0.328805 1.89361 32 204 187 -0.11899 -0.050996 -0.991585
-0.451459 -0.31976 1.89437 32 204 187 0.152674 -0.323228 -0.933924
-0.452034 -0.319467 1.89437 32 204 187 0.215807 -0.43608 -0.873648
-0.464094 -0.32579 1.89323 32 204 187 -0.103935 -0.045821 -0.993528
-0.464094 -0.322775 1.89401 32 204 187 -0.252322 -0.066533 -0.965353
-0.483536 -0.322775 1.89437 32 204 187 -0.117943 0.211789 -0.970173
-0.46711 -0.32579 1.89376 32 204 187 -0.155957 -0.145976 -0.976918
-0.46711 -0.311773 1.89437 32 204 187 0.218522 -0.351661 -0.910265
-0.446004 -0.32579 1.8939 32 204 187 0.12151 -0.048831 -0.991388
-0.464094 -0.31976 1.89365 32 204 187 -0.098894 -0.073886 -0.992351
-0.449019 -0.32579 1.89374 32 204 187 0.046912 -0.075277 -0.996059
-0.449019 -0.322775 1.89393 32 204 187 0.072704 -0.077178 -0.994363
-0.46711 -0.31976 1.89381 32 204 187 -0.117254 -0.055781 -0.991534
-0.476155 -0.32579 1.89417 32 204 187 -0.019512 0.03389 -0.999235
-0.47314 -0.322775 1.8941 32 204 187 0.019129 0.013088 -0.999731
-0.476155 -0.322775 1.89416 32 204 187 0.0072 0.048346 -0.998805
-0.458064 -0.322775 1.89308 32 204 187 0.138624 -0.005545 -0.99033
-0.461079 -0.322775 1.89296 32 204 187 -0.070921 -0.051281 -0.996163
-0.452034 -0.31976 1.89429 32 204 187 0.070319 -0.168049 -0.983267
-0.476155 -0.31976 1.89378 32 204 187 0.021439 0.025522 -0.999444
-0.47917 -0.31976 1.89409 32 204 187 0.019514 0.031838 -0.999303
-0.458064 -0.31976 1.89365 32 204 187 0.095833 -0.202866 -0.974506
-0.461079 -0.346896 1.8943 32 204 187 0.026448 0.316117 -0.948351
-0.46711 -0.313729 1.8939 32 204 187 0.047343 0.03051 -0.998413
-0.47917 -0.316744 1.89408 32 204 187 -0.056453 -0.080806 -0.99513
-0.464094 -0.346896 1.89421 32 204 187 -0.028181 0.263428 -0.964267
-0.464094 -0.343881 1.89349 32 204 187 -0.120249 0.169836 -0.978108
-0.46711 -0.343881 1.89404 32 204 187 -0.195765 0.211746 -0.957517
-0.491231 -0.310714 1.89425 32 204 187 0.000978 0.000978 -0.999999
-0.461079 -0.317562 1.89437 32 204 187 0.016661 -0.362705 -0.931755
-0.470125 -0.310742 1.89437 32 204 187 0.012909 -0.210073 -0.977601
-0.47314 -0.316547 1.89437 32 204 187 -0.027147 0.087956 -0.995754
-0.47314 -0.341674 1.89437 32 204 187 -0.146631 0.281155 -0.948394
-0.462238 -0.334835 1.89437 32 204 187 0.216376 -0.14641 -0.96527
-0.464094 -0.347643 1.89437 32 204 187 0.097325 0.472522 -0.875929
-0.471736 -0.334835 1.89437 32 204 187 -0.213934 -0.096333 -0.972086
-0.471185 -0.33182 1.89437 32 204 187 -0.204682 -0.027212 -0.97845
-0.47501 -0.313729 1.89437 32 204 187 -0.118991 -0.075091 -0.990052
-0.470732 -0.328805 1.89437 32 204 187 -0.203255 0.005807 -0.979109
-0.47917 -0.315742 1.89437 32 204 187 -0.064627 -0.274984 -0.959274
-0.47314 -0.336881 1.89437 32 204 187 -0.174748 -0.115259 -0.977844
-0.466472 -0.322775 1.89437 32 204 187 -0.152949 -0.05721 -0.986577
-0.467177 -0.322775 1.89437 32 204 187 0.019591 -0.036089 -0.999156
-0.458243 -0.346896 1.89437 32 204 187 0.081546 0.288646 -0.953957
-0.446004 -0.3331 1.89437 32 204 187 0.107421 0.354896 -0.928714
-0.442389 -0.328805 1.89437 32 204 187 0.352557 0.064702 -0.933551
-0.442989 -0.331658 1.89437 32 204 187 0.227479 0.075826 -0.970826
-0.463787 -0.316744 1.89437 32 204 187 0.096609 -0.264066 -0.959654
-0.449078 -0.334835 1.89437 32 204 187 0.072786 0.345402 -0.935628
-0.454076 -0.334835 1.89437 32 204 187 -0.295949 0.141894 -0.944606
-0.461079 -0.336093 1.89437 32 204 187 0.162502 -0.201503 -0.965914
-0.453704 -0.33182 1.89437 32 204 187 -0.337548 0.045265 -0.940219
-0.458064 -0.330304 1.89437 32 204 187 -0.03397 0.181565 -0.982792
-0.461079 -0.330263 1.89437 32 204 187 0.011213 0.317703 -0.948124
-0.443962 -0.32579 1.89437 32 204 187 0.241231 -0.169261 -0.955593
-0.46711 -0.316241 1.89437 32 204 187 0.04835 0.109068 -0.992858
-0.470125 -0.316356 1.89437 32 204 187 -0.010116 0.153992 -0.98802
-0.475 -0.32579 1.89437 32 204 187 0.066647 0.098276 -0.992925
-0.47314 -0.325245 1.89437 32 204 187 0.001096 0.130369 -0.991465
-0.479057 -0.32579 1.89437 32 204 187 -0.068646 0.088902 -0.993672
-0.47314 -0.320762 1.89437 32 204 187 0.094569 -0.078618 -0.992409
-0.455049 -0.317988 1.89437 32 204 187 0.137193 -0.316496 -0.938621
-0.465072 -0.313729 1.89437 32 204 187 0.291051 -0.215125 -0.932207
-0.458064 -0.317679 1.89437 32 204 187 0.034915 -0.353034 -0.934959
-0.473764 -0.31976 1.89437 32 204 187 0.209328 -0.052029 -0.97646
-0.473879 -0.316744 1.89437 32 204 187 0.125996 -0.046539 -0.990939
-0.47314 -0.311962 1.89437 32 204 187 -0.088198 -0.165521 -0.982255
-0.461079 -0.346994 1.89437 32 204 187 -0.009376 0.494241 -0.869274
-0.464926 -0.346896 1.89437 32 204 187 -0.266837 0.313497 -0.911328
-0.491231 -0.311261 1.89437 32 204 187 0.164658 0.225252 -0.960286
-0.46711 -0.3448 1.89437 32 204 187 -0.233515 0.284463 -0.929813
-0.468414 -0.343881 1.89437 32 204 187 -0.235967 0.331511 -0.913466
-0.483577 -0.316744 1.89437 32 204 187 -0.010211 -0.166782 -0.985941
-0.491231 -0.308955 1.89437 32 204 187 0.185529 -0.281729 -0.941386
-0.486174 -0.31976 1.89437 32 204 187 -0.295955 0.049538 -0.953916
-0.4852 -0.317153 1.89437 32 204 187 -0.164914 -0.125235 -0.978325
-0.497261 -0.295639 1.89936 32 204 187 -0.037869 -0.369548 -0.92844
-0.494246 -0.295639 1.89927 32 204 187 0.152268 -0.518893 -0.841169
-0.497261 -0.298654 1.8982 32 204 187 -0.11071 -0.267006 -0.957314
-0.494246 -0.298654 1.8977 32 204 187 -0.028585 -0.284607 -0.958218
-0.494246 -0.301669 1.89741 32 204 187 0.014571 -0.142348 -0.989709
-0.506306 -0.32579 1.89889 32 204 187 -0.386877 0.094327 -0.917294
-0.509321 -0.301669 1.89862 32 204 187 -0.135438 0.019029 -0.990603
-0.503291 -0.301669 1.89755 32 204 187 0.03956 -0.322863 -0.945619
-0.500276 -0.301669 1.89811 32 204 187 -0.015933 -0.28067 -0.959672
-0.506306 -0.310714 1.89912 32 204 187 -0.39462 -0.080009 -0.915355
-0.500276 -0.32579 1.8977 32 204 187 -0.119822 0.233202 -0.965018
-0.497261 -0.328805 1.89835 32 204 187 -0.122749 0.365489 -0.922687
-0.500276 -0.33182 1.8999 32 204 187 -0.018996 0.33812 -0.940911
-0.494246 -0.33785 1.90256 32 204 187 -0.090231 0.542816 -0.834991
-0.4852 -0.322016 1.89437 32 204 187 -0.25751 0.17392 -0.950495
-0.482185 -0.316493 1.89437 32 204 187 -0.065455 -0.293906 -0.95359
-0.476155 -0.314871 1.89437 32 204 187 -0.035696 -0.157755 -0.986833
-0.493321 -0.310714 1.89437 32 204 187 -0.270168 0.054034 -0.961296
-0.490788 -0.310714 1.89437 32 204 187 0.35071 0.001257 -0.936483
-0.482185 -0.323067 1.89437 32 204 187 -0.067864 0.120775 -0.990357
-0.47917 -0.323473 1.89437 32 204 187 -0.046199 0.005133 -0.998919
-0.449019 -0.321095 1.89437 32 204 187 0.208654 -0.289875 -0.934043
-0.446004 -0.32358 1.89437 32 204 187 0.219118 -0.24668 -0.944
-0.46711 -0.316895 1.89437 32 204 187 -0.085764 -0.128059 -0.988051
-0.468841 -0.31976 1.89437 32 204 187 -0.159086 -0.007898 -0.987233
-0.464094 -0.316375 1.89437 32 204 187 0.134968 -0.103913 -0.985386
-0.443284 -0.33182 1.89437 32 204 187 0.129662 0.103491 -0.986143
-0.46711 -0.323504 1.89437 32 204 187 -0.092842 -0.160364 -0.982682
-0.473588 -0.33785 1.89437 32 204 187 -0.184881 -0.073711 -0.979993
-0.464094 -0.330682 1.89437 32 204 187 0.087588 0.367871 -0.925742
-0.47314 -0.313729 1.89411 32 204 187 -0.063217 0.001036 -0.997999
-0.482185 -0.316744 1.89427 32 204 187 0.030837 -0.151899 -0.987915
-0.497261 -0.334835 1.90075 32 204 187 0.027851 0.428376 -0.903171
-0.482185 -0.31976 1.89354 32 204 187 -0.006896 0.000985 -0.999976
-0.455049 -0.31976 1.89403 32 204 187 0.10522 -0.148759 -0.98326
-0.494246 -0.328805 1.89774 32 204 187 -0.218248 0.382301 -0.897894
-0.491231 -0.334835 1.90014 32 204 187 -0.279031 0.497267 -0.821503
-0.47917 -0.322775 1.89436 32 204 187 -0.045357 0.094033 -0.994535
-0.455049 -0.322775 1.89364 32 204 187 0.08147 -0.033674 -0.996107
-0.458064 -0.32579 1.89336 32 204 187 0.136786 0.146645 -0.979686
-0.470125 -0.322775 1.89431 32 204 187 0.030264 -0.0407 -0.998713
-0.470125 -0.32579 1.89419 32 204 187 -0.129289 -0.07338 -0.988888
-0.449019 -0.328805 1.89351 32 204 187 0.136553 -0.141474 -0.980479
-0.464094 -0.328805 1.89345 32 204 187 0.039993 0.226626 -0.97316
-0.470125 -0.334835 1.89396 32 204 187 -0.201268 -0.069529 -0.977065
-0.46711 -0.334835 1.89342 32 204 187 0.033137 -0.065205 -0.997321
-0.470125 -0.33785 1.89361 32 204 187 -0.13945 -0.030611 -0.989756
-0.503291 -0.307679 1.89738 32 204 187 -0.4853 0.176608 -0.856325
-0.485309 -0.33785 1.89738 32 204 187 -0.535062 0.246594 -0.808022
-0.4852 -0.340865 1.8981 32 204 187 -0.503269 0.167756 -0.84769
-0.502931 -0.310714 1.89738 32 204 187 -0.30956 -0.001233 -0.950879
-0.493295 -0.328805 1.89738 32 204 187 -0.297397 0.271284 -0.915402
-0.491231 -0.330507 1.89738 32 204 187 -0.286237 0.386192 -0.876883
-0.489753 -0.33182 1.89738 32 204 187 -0.358674 0.380411 -0.852432
-0.477517 -0.346896 1.89738 32 204 187 -0.414783 0.125138 -0.901274
-0.452034 -0.342896 1.89738 32 204 187 0.093634 0.445808 -0.890218
-0.442989 -0.346647 1.89738 32 204 187 0.164582 0.281557 -0.945325
-0.503424 -0.316744 1.89738 32 204 187 -0.355943 0.024415 -0.934189
-0.452034 -0.346896 1.89779 32 204 187 0.054981 0.050669 -0.997201
-0.47917 -0.343881 1.89872 32 204 187 -0.260692 0.174245 -0.949567
-0.482185 -0.346896 1.89888 32 204 187 -0.1344 0.098719 -0.985998
-0.503291 -0.304684 1.89709 32 204 187 -0.085936 -0.061383 -0.994408
-0.494246 -0.313729 1.89547 32 204 187 -0.172098 0.098865 -0.980106
-0.494246 -0.316744 1.89546 32 204 187 -0.099686 0.054884 -0.993504
-0.482185 -0.33785 1.89597 32 204 187 -0.376714 0.197739 -0.904979
-0.461079 -0.334835 1.89462 32 204 187 0.05737 -0.05304 -0.996943
-0.497261 -0.304684 1.89671 32 204 187 -0.10341 -0.159373 -0.981787
-0.500276 -0.307699 1.89674 32 204 187 -0.103495 -0.041176 -0.993777
-0.497261 -0.31976 1.89623 32 204 187 -0.185733 0.113434 -0.976031
-0.482185 -0.349911 1.89898 32 204 187 -0.166745 0.272486 -0.947601
-0.458064 -0.33785 1.89459 32 204 187 0.232615 -0.13645 -0.962949
-0.455049 -0.33785 1.89533 32 204 187 0.092433 0.118174 -0.988681
-0.476155 -0.343881 1.89625 32 204 187 -0.394933 0.354347 -0.847624
-0.497261 -0.310714 1.8966 32 204 187 -0.212247 -0.120739 -0.969728
-0.47314 -0.343881 1.89513 32 204 187 -0.169532 0.37753 -0.910346
-0.4852 -0.313729 1.89442 32 204 187 -0.055203 -0.16091 -0.985424
-0.47314 -0.346896 1.89676 32 204 187 -0.057317 0.521441 -0.85136
-0.4852 -0.316744 1.89453 32 204 187 -0.137341 -0.014516 -0.990417
-0.470125 -0.343881 1.89474 32 204 187 -0.142193 0.446687 -0.883319
-0.494246 -0.307699 1.89571 32 204 187 -0.290214 -0.193013 -0.937295
-0.494246 -0.32579 1.89689 32 204 187 -0.13031 0.191037 -0.972895
-0.436958 -0.340865 1.89637 32 204 187 0.241098 0.187222 -0.952271
-0.482185 -0.307699 1.8968 32 204 187 -0.099722 -0.083675 -0.991491
-0.4852 -0.322775 1.8946 32 204 187 -0.198836 0.167646 -0.965588
-0.491231 -0.328805 1.89668 32 204 187 -0.267455 0.159935 -0.950204
-0.442989 -0.334835 1.89489 32 204 187 0.090566 0.061495 -0.99399
-0.482185 -0.313729 1.89521 32 204 187 0.049003 -0.280194 -0.958692
-0.4852 -0.334835 1.89671 32 204 187 -0.354818 0.158476 -0.921406
-0.47314 -0.32579 1.8945 32 204 187 -0.079566 0.111853 -0.990534
-0.470125 -0.316744 1.89445 32 204 187 -0.060024 0.060024 -0.996391
-0.46711 -0.322775 1.8944 32 204 187 0.000978 0.000978 -0.999999
-0.503291 -0.316744 1.89734 32 204 187 -0.230194 0.032541 -0.9726
-0.482185 -0.33182 1.89545 32 204 187 -0.176953 0.091527 -0.979954
-0.47917 -0.33182 1.89498 32 204 187 -0.093784 0.068925 -0.993204
-0.47917 -0.334835 1.89519 32 204 187 -0.093442 -0.038476 -0.994881
-0.500276 -0.334835 1.90047 32 204 187 -0.027103 0.365239 -0.930519
-0.509685 -0.310714 1.9004 32 204 187 -0.364928 -0.016646 -0.930887
-0.506306 -0.33785 1.90178 32 204 187 -0.09797 0.240471 -0.9657
-0.509321 -0.292594 1.9004 32 204 187 -0.022297 -0.410535 -0.911572
-0.508553 -0.322775 1.9004 32 204 187 -0.451931 -0.014578 -0.891934
-0.504807 -0.33182 1.9004 32 204 187 -0.273212 0.287667 -0.917934
-0.491231 -0.335222 1.9004 32 204 187 -0.359016 0.402913 -0.841884
-0.485692 -0.349911 1.9004 32 204 187 -0.704956 0.136782 -0.695937
-0.506306 -0.351211 1.90643 32 204 187 0.040358 0.363219 -0.930829
-0.4852 -0.351161 1.9004 32 204 187 -0.459379 0.279958 -0.842968
-0.503291 -0.334835 1.90103 32 204 187 -0.140628 0.215458 -0.966334
-0.509321 -0.295639 1.89898 32 204 187 -0.046225 -0.273602 -0.960732
-0.509321 -0.292623 1.90039 32 204 187 -0.049658 -0.414708 -0.908599
-0.491231 -0.298654 1.89812 32 204 187 0.210112 -0.407 -0.888934
-0.488215 -0.340865 1.90002 32 204 187 -0.551829 0.169909 -0.816466
-0.509321 -0.298654 1.89866 32 204 187 -0.021914 -0.046959 -0.998656
-0.509321 -0.304684 1.89882 32 204 187 -0.240794 0.243578 -0.939515
-0.506306 -0.307699 1.89944 32 204 187 -0.379343 0.153712 -0.912399
-0.500276 -0.328805 1.89855 32 204 187 -0.069759 0.338267 -0.938461
-0.506306 -0.292623 1.90003 32 204 187 0.014032 -0.360994 -0.932462
-0.491231 -0.33182 1.89815 32 204 187 -0.34494 0.505377 -0.790955
-0.500276 -0.295639 1.89941 32 204 187 -0.023759 -0.306368 -0.951617
-0.4852 -0.343881 1.8985 32 204 187 -0.340404 0.216882 -0.914925
-0.503291 -0.298654 1.89897 32 204 187 0.035777 -0.265245 -0.963517
-0.452034 -0.343881 1.89792 32 204 187 0.053365 0.064256 -0.996506
-0.446004 -0.349911 1.89878 32 204 187 -0.014776 0.484905 -0.874442
-0.47917 -0.349911 1.89852 32 204 187 -0.073535 0.462025 -0.883813
-0.509321 -0.334835 1.90255 32 204 187 -0.250875 0.08787 -0.964023
-0.509321 -0.33182 1.90199 32 204 187 -0.312069 0.204751 -0.927734
-0.509321 -0.322775 1.90063 32 204 187 -0.380994 0.085419 -0.920623
-0.509321 -0.328805 1.90111 32 204 187 -0.368286 0.190592 -0.909967
-0.497261 -0.33785 1.90208 32 204 187 0.0744 0.503958 -0.860518
-0.491231 -0.33785 1.90165 32 204 187 -0.412468 0.422098 -0.807282
-0.497259 -0.343881 1.90643 32 204 187 0.143746 0.064277 -0.987525
-0.493225 -0.343881 1.90643 32 204 187 -0.435656 0.096039 -0.894975
-0.509321 -0.341502 1.90341 32 204 187 0.006072 0.278082 -0.960538
-0.506306 -0.343881 1.90415 32 204 187 0.101169 0.295622 -0.949933
-0.503291 -0.343881 1.90453 32 204 187 0.160726 0.306341 -0.938255
-0.506306 -0.346896 1.90481 32 204 187 0.096609 0.264066 -0.959654
-0.503291 -0.346896 1.90542 32 204 187 0.14641 0.216376 -0.96527
-0.503291 -0.349911 1.90572 32 204 187 -0.011839 0.093634 -0.995536
-0.503291 -0.341018 1.90341 32 204 187 0.142464 0.39636 -0.906974
-0.497261 -0.346896 1.90589 32 204 187 0.042667 -0.232838 -0.971579
-0.497261 -0.349911 1.90507 32 204 187 0.012513 -0.164939 -0.986224
-0.494246 -0.349911 1.90531 32 204 187 -0.079763 -0.155955 -0.984538
-0.536458 -0.298654 1.90734 32 204 187 -0.291838 0.098152 -0.951418
-0.521382 -0.343881 1.90659 32 204 187 -0.001001 0.025017 -0.999686
-0.539473 -0.298654 1.90783 32 204 187 -0.291508 0.068061 -0.954144
-0.542488 -0.298654 1.90887 32 204 187 -0.375994 0.019381 -0.926419
-0.527412 -0.343881 1.90655 32 204 187 -0.080638 0.054127 -0.995273
-0.539473 -0.295639 1.90766 32 204 187 -0.46467 0.011983 -0.885403
-0.542488 -0.295639 1.9091 32 204 187 -0.413904 -0.086631 -0.906189
-0.539473 -0.292623 1.90735 32 204 187 -0.525521 0.001344 -0.85078
-0.536458 -0.310714 1.9066 32 204 187 -0.108867 -0.074488 -0.991262
-0.551533 -0.32579 1.92018 32 204 187 -0.684719 0.240832 -0.687867
-0.530427 -0.340865 1.90662 32 204 187 -0.015805 0.064273 -0.997807
-0.542488 -0.313729 1.90785 32 204 187 -0.166311 -0.1363 -0.976608
-0.542488 -0.310714 1.90817 32 204 187 -0.207387 0.072401 -0.975576
-0.524397 -0.33785 1.90705 32 204 187 -0.018977 -0.004994 -0.999807
-0.524397 -0.346896 1.90691 32 204 187 -0.075446 0.216443 -0.973376
-0.536458 -0.289608 1.90645 32 204 187 -0.292033 -0.109678 -0.950099
-0.527412 -0.33785 1.90666 32 204 187 0.079782 -0.011701 -0.996744
-0.539473 -0.307699 1.90684 32 204 187 -0.115898 0.001083 -0.993261
-0.55493 -0.274533 1.91547 32 204 187 -0.556922 -0.4472 -0.699893
-0.539473 -0.304684 1.90707 32 204 187 -0.224094 -0.136011 -0.96503
-0.539473 -0.289608 1.90769 32 204 187 -0.517966 -0.048603 -0.854019
-0.542488 -0.304684 1.90763 32 204 187 -0.297217 -0.254142 -0.920366
-0.542488 -0.301669 1.90925 32 204 187 -0.387195 -0.142206 -0.910965
-0.536458 -0.280563 1.90827 32 204 187 -0.252789 -0.576233 -0.777208
-0.539473 -0.283578 1.90747 32 204 187 -0.290654 -0.198868 -0.935934
