ply
format ascii 1.0
element vertex 749
property float x
property float y
property float z
property uchar red
property uchar green
property uchar blue
property float nx
property float ny
property float nz
end_header
-1.29929 0.304684 1.60136 68 107 47 0.503813 0.577953 -0.641983
-1.29627 0.304684 1.60128 46 94 32 0.44308 0.616968 -0.650408
-1.29325 0.304684 1.60099 76 90 29 -0.339998 0.600284 -0.72392
-1.31436 0.287351 1.60491 75 96 32 0.400545 -0.133515 -0.906497
-1.30833 0.286753 1.60491 84 85 29 0.454705 -0.2206 -0.86289
-1.30532 0.288242 1.60491 84 85 29 0.451219 -0.177842 -0.874513
-1.3023 0.288009 1.60491 40 91 31 0.829283 0.38068 -0.409113
-1.29929 0.28685 1.60491 41 91 28 0.575177 0.659022 -0.484624
-1.29627 0.286603 1.60491 41 91 28 0.213677 0.803977 -0.554944
-1.29094 0.307699 1.60491 41 96 26 -0.05596 0.713137 -0.698788
-1.29325 0.308749 1.60491 39 89 27 0.134035 0.87483 -0.465519
-1.28447 0.289608 1.60491 48 103 34 0.310159 0.787328 -0.532838
-1.28384 0.307699 1.60491 39 89 27 0.067356 0.892121 -0.446748
-1.28119 0.30837 1.60491 48 103 34 0.405685 0.697116 -0.591141
-1.28119 0.29094 1.60491 100 63 20 0.34367 -0.264021 -0.901212
-1.27818 0.292482 1.60491 76 102 35 0.313793 -0.074217 -0.946587
-1.2779 0.292623 1.60491 103 60 21 0.222542 -0.022611 -0.974661
-1.32242 0.295639 1.60491 43 91 29 0.531456 0.592194 -0.605691
-1.32064 0.298654 1.60491 43 91 29 0.453787 0.604492 -0.654727
-1.32039 0.299041 1.60491 59 95 38 0.67852 0.510984 -0.527737
-1.31881 0.301669 1.60491 59 95 38 0.589068 0.60257 -0.538431
-1.31749 0.304684 1.60491 102 68 25 0.503288 0.135669 -0.853402
-1.31766 0.307699 1.60491 102 68 25 -0.012286 0.555603 -0.831357
-1.32256 0.313729 1.60491 93 107 42 -0.00104 0.067624 -0.99771
-1.32039 0.310377 1.60491 81 111 41 -0.196558 0.001149 -0.980491
-1.32274 0.316744 1.60491 49 104 28 0.351199 0.019156 -0.936105
-1.32106 0.310714 1.60491 51 101 27 0.634637 -0.254805 -0.729596
-1.32261 0.31976 1.60491 98 67 24 0.168933 0.055523 -0.984062
-1.32039 0.321379 1.60491 81 113 41 0.016913 0.002985 -0.999852
-1.27516 0.294075 1.60491 41 96 26 0.251586 0.716784 -0.650327
-1.29555 0.310714 1.60491 91 114 46 0.112357 -0.109992 -0.987561
-1.31865 0.322775 1.60491 39 89 27 0.166805 0.806977 -0.566537
-1.27349 0.295639 1.60491 39 89 27 0.104884 0.695782 -0.710554
-1.31738 0.323613 1.60491 107 54 20 0.435049 0.011829 -0.900329
-1.29627 0.311425 1.60491 43 91 29 0.541856 0.582369 -0.606001
-1.27215 0.297739 1.60491 43 91 29 0.437942 0.594469 -0.674398
-1.29866 0.313729 1.60491 70 96 30 -0.210055 0.550435 -0.808021
-1.31436 0.324512 1.60491 76 90 29 -0.579588 0.673124 -0.459328
-1.27179 0.298654 1.60491 75 96 32 0.469483 -0.146804 -0.870651
-1.31134 0.324901 1.60491 106 59 22 0.353142 -0.048215 -0.934327
-1.27094 0.301669 1.60491 41 96 26 0.089077 0.728683 -0.679033
-1.30833 0.325537 1.60491 41 95 26 0.104614 0.679256 -0.726407
-1.27194 0.304684 1.60491 43 94 28 0.182598 0.822446 -0.53874
-1.30532 0.325622 1.60491 100 63 20 0.191511 0.029373 -0.981051
-1.27215 0.305007 1.60491 53 106 37 0.293447 0.814434 -0.500586
-1.27418 0.307699 1.60491 53 106 37 0.459642 0.725139 -0.512741
-1.29024 0.307476 1.60491 45 96 30 0.191797 0.860857 -0.471316
-1.27818 0.3089 1.60491 39 89 27 0.179476 0.905993 -0.38336
-1.28722 0.307382 1.60491 79 89 30 0.394846 -0.259727 -0.881271
-1.27516 0.308299 1.60491 39 89 27 0.379822 0.88425 -0.27173
-1.29929 0.314891 1.60491 116 51 24 0.24663 -0.40507 -0.880393
-1.28421 0.307633 1.60491 122 47 24 0.290135 -0.065185 -0.954763
-1.2997 0.316744 1.60491 79 112 50 0.898582 0.211861 -0.384272
-1.29929 0.318223 1.60491 68 101 41 0.763044 0.488544 -0.423187
-1.29909 0.31976 1.60491 50 97 34 0.62875 0.642092 -0.438624
-1.29929 0.321403 1.60491 50 97 34 0.585759 0.695278 -0.416503
-1.29985 0.322775 1.60491 71 115 40 0.08539 -0.056557 -0.994741
-1.3023 0.325404 1.60491 71 115 40 0.302571 -0.262035 -0.9164
-1.29325 0.307699 1.60362 76 114 42 0.224169 -0.105119 -0.968865
-1.28119 0.307699 1.60427 43 91 29 0.589268 0.676072 -0.442368
-1.31738 0.289608 1.60405 54 92 34 0.671013 0.583998 -0.456824
-1.31738 0.292623 1.60227 81 100 35 0.278254 -0.103202 -0.954947
-1.32039 0.295639 1.60399 39 89 27 0.536634 0.709421 -0.456887
-1.31738 0.295639 1.60247 84 85 29 0.351535 -0.00378 -0.936167
-1.32039 0.298654 1.60479 124 47 22 0.153196 0.10012 -0.983111
-1.28119 0.292623 1.60279 110 53 21 0.217785 0.012949 -0.975911
-1.31738 0.298654 1.60332 94 75 27 0.253613 -0.104277 -0.961669
-1.27818 0.292623 1.60472 123 46 22 0.098573 0.247073 -0.96397
-1.31738 0.301669 1.6041 116 51 24 0.160219 -0.00112 -0.987081
-1.27818 0.295639 1.60219 53 103 29 0.256042 0.337976 -0.905657
-1.31436 0.289608 1.60266 53 103 29 0.364698 -0.252483 -0.896241
-1.27516 0.295639 1.6038 119 49 22 0.45458 -0.061801 -0.888559
-1.30532 0.289608 1.60295 77 114 41 0.998165 -0.011473 -0.059452
-1.27516 0.298654 1.60266 46 87 24 0.800729 0.490666 -0.343626
-1.31436 0.301669 1.60261 46 87 24 0.707044 0.585083 -0.397197
-1.27516 0.301669 1.60234 42 98 29 0.516312 0.77204 -0.370644
-1.27215 0.298654 1.60463 42 98 29 0.586224 0.717591 -0.376037
-1.27215 0.301669 1.60406 43 97 30 0.565675 0.720699 -0.400755
-1.31738 0.304684 1.60486 71 108 42 0.973169 0.135408 -0.186028
-1.31738 0.307699 1.60483 51 106 33 0.428458 0.777088 -0.46104
-1.27516 0.304684 1.60269 64 99 31 0.045288 0.236234 -0.97064
-1.32039 0.310714 1.60481 64 99 31 0.233309 -0.258456 -0.937426
-1.31738 0.310714 1.60449 43 94 29 0.326009 0.686078 -0.650396
-1.27818 0.307699 1.60375 43 94 29 0.297035 0.708068 -0.640633
-1.3023 0.289608 1.60337 85 82 28 -0.231321 0.353528 -0.906371
-1.32039 0.313729 1.60434 46 88 24 0.845797 0.358018 -0.395539
-1.31738 0.313729 1.60388 46 88 24 0.616052 0.649443 -0.445762
-1.27516 0.307699 1.60443 80 81 29 0.369677 -0.102309 -0.92351
-1.31436 0.304684 1.6038 68 86 25 0.169316 0.304219 -0.937434
-1.27215 0.304684 1.60479 68 86 25 0.082684 0.625206 -0.776068
-1.31134 0.304684 1.60223 68 86 25 0.319843 -0.304967 -0.897048
-1.31436 0.307699 1.60383 97 68 25 0.337727 0.141983 -0.930473
-1.31134 0.307699 1.60285 97 68 25 0.617101 -0.178274 -0.766424
-1.32039 0.316744 1.6041 72 111 37 0.995084 -0.065451 0.074326
-1.31436 0.310714 1.60366 45 88 23 0.946632 0.321426 0.023949
-1.31738 0.316744 1.60347 45 88 23 0.74093 0.62452 -0.246977
-1.31134 0.310714 1.60239 42 98 26 0.583859 0.699638 -0.411844
-1.31436 0.313729 1.60334 42 98 26 0.635499 0.642171 -0.42867
-1.32039 0.31976 1.60433 43 97 30 0.640152 0.679446 -0.358551
-1.31134 0.313729 1.60243 43 97 30 0.518062 0.741733 -0.425962
-1.31738 0.31976 1.60353 56 106 29 0.996016 0.083453 0.03143
-1.30532 0.310714 1.60196 49 101 31 0.527952 0.761875 -0.375252
-1.31738 0.322775 1.60445 49 101 31 0.646052 0.639409 -0.416861
-1.30833 0.313729 1.60207 42 98 29 0.546923 0.709836 -0.443855
-1.30532 0.313729 1.60271 42 98 29 0.596024 0.649751 -0.471783
-1.31436 0.316744 1.6026 49 101 31 0.40225 0.633999 -0.660485
-1.3023 0.307699 1.60213 88 70 23 0.506611 -0.001337 -0.862174
-1.29929 0.307699 1.60254 90 70 25 0.655266 -0.079911 -0.751159
-1.31134 0.316744 1.60227 42 97 22 0.718937 0.486486 -0.496448
-1.29627 0.307699 1.60201 42 97 22 0.65729 0.52953 -0.536254
-1.31436 0.31976 1.60313 95 108 41 0.96961 -0.035281 0.242098
-1.3023 0.310714 1.60271 73 73 22 0.605925 0.261038 -0.751474
-1.31134 0.31976 1.60285 73 73 22 0.438407 0.239542 -0.866268
-1.29929 0.310714 1.60296 39 92 19 0.500606 0.826077 -0.258827
-1.3023 0.313729 1.6031 39 92 19 0.724602 0.621776 -0.297231
-1.30833 0.316744 1.60227 39 92 19 0.438017 0.79037 -0.428319
-1.29929 0.313729 1.60441 79 73 23 0.659164 0.625957 -0.416751
-1.29627 0.310714 1.6042 95 108 41 0.983527 -0.038593 0.176591
-1.30532 0.316744 1.60275 44 98 19 0.642391 0.658905 -0.39138
-1.30833 0.31976 1.60281 73 73 22 0.401577 0.603192 -0.689126
-1.29024 0.304684 1.6023 122 49 24 0.441388 0.009223 -0.897269
-1.28722 0.304684 1.60211 122 49 24 0.370042 0.059684 -0.927096
-1.30532 0.31976 1.60276 93 66 23 0.38748 0.057256 -0.920098
-1.28421 0.304684 1.60223 99 60 23 0.361422 0.189996 -0.912839
-1.31436 0.322775 1.60416 110 55 23 0.43157 0.027886 -0.901649
-1.31134 0.322775 1.60408 106 47 20 0.291017 0.081485 -0.953242
-1.30833 0.322775 1.6037 106 47 20 0.662058 0.10764 -0.741682
-1.30532 0.322775 1.60339 86 106 35 0.933824 -0.242935 0.262594
-1.3023 0.316744 1.60343 95 108 41 0.972604 -0.096384 0.211545
-1.3023 0.31976 1.60302 100 108 23 -0.348074 -0.121485 -0.929562
-1.29929 0.31976 1.60474 100 108 23 -0.253216 -0.244822 -0.935919
-1.3023 0.322775 1.60354 100 108 23 -0.209798 0.276488 -0.937837
-1.29627 0.32807 1.60793 100 108 23 -0.299227 0.384286 -0.873377
-1.29325 0.31094 1.60793 101 58 17 0.308915 -0.104739 -0.945305
-1.2978 0.328805 1.60793 99 36 14 -0.296534 0.601083 -0.742137
-1.29555 0.313729 1.60793 113 31 18 0.125673 0.495469 -0.859487
-1.29446 0.32579 1.60793 84 64 15 -0.449818 -0.014596 -0.893001
-1.29024 0.310005 1.60793 112 35 15 0.316613 0.567331 -0.760192
-1.29929 0.329204 1.60793 39 92 19 0.107106 0.617696 -0.779089
-1.29275 0.310714 1.60793 72 81 22 0.491065 0.009366 -0.871072
-1.28722 0.309668 1.60793 100 108 23 -0.258819 -0.033119 -0.965358
-1.3288 0.313729 1.60793 100 108 23 -0.087863 0.001059 -0.996132
-1.32771 0.316744 1.60793 62 77 19 0.71653 0.357449 -0.599012
-1.32642 0.318869 1.60793 100 108 23 -0.152304 0.049993 -0.987068
-1.27818 0.29047 1.60793 83 70 25 0.514458 -0.012153 -0.85743
-1.32585 0.31976 1.60793 100 108 23 -0.282288 0.008554 -0.959291
-1.27516 0.292041 1.60793 100 108 23 -0.198836 0.167646 -0.965588
-1.32341 0.322737 1.60793 110 55 23 0.297091 0.001223 -0.954848
-1.32337 0.322775 1.60793 100 108 23 -0.106778 0.135572 -0.984997
-1.28421 0.288239 1.60793 99 36 14 -0.123423 0.147864 -0.981276
-1.32039 0.325123 1.60793 114 48 24 0.310026 0.068751 -0.948239
-1.31934 0.32579 1.60793 100 108 23 -0.106961 0.248717 -0.962652
-1.31738 0.327002 1.60793 39 92 19 0.501807 0.774633 -0.384881
-1.26913 0.297851 1.60793 91 77 21 -0.122202 0.227681 -0.966037
-1.32575 0.295639 1.60793 96 26 9 -0.242823 0.21813 -0.945228
-1.26866 0.298654 1.60793 100 29 11 -0.059741 0.283451 -0.957124
-1.32554 0.298654 1.60793 103 111 22 0.086536 0.229508 -0.969452
-1.32634 0.301669 1.60793 77 53 9 0.096052 0.301313 -0.948675
-1.26742 0.301669 1.60793 94 82 19 0.055481 0.235484 -0.970293
-1.32642 0.302432 1.60793 103 79 24 -0.10773 0.754108 -0.647854
-1.32675 0.304684 1.60793 103 79 24 -0.161688 0.781239 -0.602929
-1.27818 0.312412 1.60793 103 79 24 -0.206529 0.725181 -0.656855
-1.32751 0.307699 1.60793 123 74 33 0.949175 -0.314746 -0.001234
-1.27516 0.312247 1.60793 110 103 42 0.966279 -0.256459 0.023093
-1.27215 0.310181 1.60793 85 106 32 0.986688 -0.158101 0.038083
-1.27285 0.310714 1.60793 59 106 19 0.980479 -0.141474 -0.136553
-1.26913 0.30852 1.60793 65 107 40 0.660607 0.049938 -0.749069
-1.26688 0.304684 1.60793 65 107 40 0.550034 -0.124674 -0.825784
-1.26827 0.307699 1.60793 65 104 22 0.496318 -0.07733 -0.86469
-1.31436 0.328385 1.60793 105 58 22 0.580155 0.043547 -0.813341
-1.31134 0.32833 1.60793 100 99 27 -0.427382 -0.02514 -0.903721
-1.30918 0.328805 1.60793 100 99 27 -0.455114 -0.02002 -0.890208
-1.30833 0.329114 1.60793 100 99 27 -0.485639 0.003992 -0.87415
-1.30532 0.33061 1.60793 103 60 22 -0.41366 0.153155 -0.897457
-1.3023 0.330442 1.60793 109 106 41 -0.119419 0.602994 -0.788757
-1.28421 0.289608 1.60505 103 60 22 -0.244591 0.789859 -0.562404
-1.29929 0.32579 1.60631 90 34 11 -0.246121 0.818855 -0.518557
-1.29627 0.32579 1.6073 96 29 11 -0.19679 0.806992 -0.55681
-1.29929 0.328805 1.60769 123 69 36 0.943235 -0.069144 -0.324849
-1.28119 0.289608 1.6076 103 79 24 0.065829 0.508428 -0.858585
-1.32341 0.295639 1.60557 103 79 24 -0.201794 0.350635 -0.914513
-1.29024 0.307699 1.6052 82 65 15 -0.008469 0.26495 -0.964225
-1.28722 0.307699 1.60535 82 65 15 -0.230914 -0.022732 -0.972709
-1.32341 0.298654 1.60652 98 79 18 -0.293882 0.369236 -0.881645
-1.32642 0.313729 1.60601 101 27 12 -0.239413 0.605573 -0.758922
-1.32341 0.301669 1.60639 49 93 18 0.438077 0.301855 -0.846742
-1.28421 0.307699 1.605 47 94 18 0.106645 0.344234 -0.932807
-1.32642 0.316744 1.60696 66 109 41 0.384009 -0.027336 -0.922924
-1.32341 0.313729 1.60518 102 53 15 0.232123 0.524199 -0.81935
-1.32341 0.316744 1.60524 53 99 28 0.042699 0.026036 -0.998749
-1.32039 0.301669 1.60579 53 99 28 0.380431 -0.141784 -0.913876
-1.32341 0.31976 1.60532 96 71 23 0.434043 -0.006557 -0.900868
-1.32039 0.322775 1.6058 79 95 26 0.005103 -0.039804 -0.999195
-1.27516 0.292623 1.60695 101 60 21 0.357658 -0.251685 -0.899297
-1.31738 0.32579 1.60679 108 56 21 0.158853 -0.197598 -0.967327
-1.31436 0.32579 1.60576 124 44 23 -0.120732 0.041748 -0.991807
-1.31134 0.32579 1.60542 124 44 23 0.238641 0.073716 -0.968306
-1.26913 0.298654 1.60746 124 44 23 0.136486 0.197714 -0.970711
-1.26913 0.301669 1.60634 100 99 27 -0.442446 -0.064381 -0.894481
-1.30833 0.32579 1.60507 100 99 27 -0.407999 -0.03301 -0.912386
-1.30532 0.32579 1.60503 100 99 27 -0.420458 0.003905 -0.907304
-1.32642 0.304684 1.60782 100 99 27 -0.378635 0.138321 -0.915152
-1.32341 0.304684 1.6079 109 106 41 -0.396735 0.365373 -0.842083
-1.30833 0.328805 1.60764 101 58 17 -0.273828 -0.072596 -0.959035
-1.26913 0.304684 1.60626 101 58 17 0.19147 -0.279629 -0.940822
-1.30532 0.328805 1.60708 101 58 17 -0.373533 0.084955 -0.923718
-1.27215 0.307699 1.60599 93 32 11 -0.390168 0.44797 -0.80442
-1.32642 0.307699 1.60748 101 28 14 0.317137 0.31416 -0.894834
-1.26913 0.307699 1.60747 124 72 32 0.894394 -0.228387 -0.384575
-1.27818 0.310714 1.60649 84 103 31 0.941344 -0.174018 -0.289117
-1.32341 0.307699 1.60673 70 104 26 0.910116 -0.270259 -0.314085
-1.27516 0.310714 1.6067 55 104 19 0.742942 -0.261376 -0.616214
-1.32039 0.304684 1.6062 103 79 24 -0.171638 0.767053 -0.618199
-1.32039 0.307699 1.60565 70 109 32 0.035969 -0.168243 -0.985089
-1.29929 0.322775 1.60531 103 79 24 -0.258195 0.733401 -0.628855
-1.3023 0.32579 1.60515 103 79 24 -0.25201 0.781074 -0.571327
-1.32341 0.310714 1.60542 56 105 20 0.663215 -0.152585 -0.732709
-1.3023 0.328805 1.60722 48 100 14 0.447761 -0.070264 -0.891388
-1.30532 0.332558 1.61094 108 97 31 -0.15007 0.256315 -0.954872
-1.3023 0.332963 1.61094 103 60 22 -0.094464 0.800761 -0.591488
-1.29929 0.332292 1.61094 114 77 43 0.857831 -0.151037 -0.491237
-1.29627 0.331891 1.61094 108 41 25 0.95691 0.049169 -0.286191
-1.29325 0.332323 1.61094 114 31 21 0.975843 0.214853 -0.03961
-1.28722 0.328477 1.61094 103 79 24 -0.206099 0.816762 -0.53891
-1.2875 0.328805 1.61094 103 79 24 -0.191605 0.828279 -0.526538
-1.29024 0.331734 1.61094 55 104 19 0.935212 -0.106305 -0.337753
-1.32944 0.31854 1.61094 103 79 24 -0.287241 0.814634 -0.503849
-1.33056 0.304684 1.61094 103 79 24 -0.253459 0.807027 -0.533353
-1.29042 0.33182 1.61094 56 102 34 0.551722 0.279813 -0.785689
-1.32855 0.31976 1.61094 71 112 46 0.338941 -0.083738 -0.937073
-1.33125 0.307699 1.61094 70 109 32 0.006086 -0.278733 -0.960349
-1.28421 0.326191 1.61094 67 108 31 0.023292 -0.270921 -0.96232
-1.28328 0.32579 1.61094 72 113 36 0.219824 -0.206338 -0.953469
-1.32642 0.321881 1.61094 77 113 39 -0.07403 -0.242165 -0.967407
-1.33491 0.313729 1.61094 75 112 36 0.057372 -0.100119 -0.99332
-1.33245 0.315339 1.61094 101 86 35 0.183341 0.097208 -0.978231
-1.32546 0.322775 1.61094 114 58 25 0.216712 0.184803 -0.958584
-1.27516 0.290835 1.61094 119 102 37 0.180851 0.329458 -0.926688
-1.33235 0.310714 1.61094 109 97 31 -0.068631 0.394289 -0.91642
-1.32341 0.324618 1.61094 105 97 30 -0.358407 0.23845 -0.9026
-1.33245 0.310959 1.61094 103 60 22 -0.210074 0.497225 -0.841806
-1.33127 0.316744 1.61094 119 62 39 0.956819 -0.263814 -0.122063
-1.32193 0.32579 1.61094 80 116 38 0.593612 -0.177628 -0.784903
-1.32679 0.289608 1.61094 80 116 38 0.55922 -0.370096 -0.741823
-1.32039 0.326965 1.61094 43 92 22 0.116767 0.163474 -0.979613
-1.32718 0.292623 1.61094 73 114 32 0.076069 -0.056225 -0.995516
-1.32789 0.295639 1.61094 66 111 31 -0.085989 -0.095161 -0.991741
-1.26612 0.298869 1.61094 121 42 17 -0.104727 0.257292 -0.960642
-1.26485 0.301669 1.61094 120 42 17 0.067913 0.726816 -0.683467
-1.3284 0.298654 1.61094 95 43 29 0.909754 -0.39706 0.121208
-1.31777 0.328805 1.61094 99 36 22 0.725056 -0.07701 0.684371
-1.26913 0.312555 1.61094 99 36 22 0.653449 0.082954 0.752412
-1.2717 0.313729 1.61094 99 36 22 0.591025 0.208325 0.779289
-1.31738 0.329029 1.61094 118 39 23 0.972751 0.231607 -0.01069
-1.26413 0.304684 1.61094 118 39 23 0.884051 0.373733 0.280675
-1.31436 0.330283 1.61094 98 31 17 0.858755 0.0863 0.505067
-1.26432 0.307699 1.61094 99 36 22 0.856799 -0.195882 0.476996
-1.31134 0.331197 1.61094 99 36 22 0.799887 -0.026431 0.599568
-1.26599 0.310714 1.61094 99 36 22 0.651187 0.247546 0.71741
-1.30833 0.331667 1.61094 99 36 22 0.612207 0.354264 0.706895
-1.26612 0.310831 1.61094 71 126 54 0.461807 -0.082316 -0.883153
-1.3078 0.33182 1.61094 71 126 54 0.416984 0.204808 -0.885538
-1.27516 0.315239 1.61094 71 127 55 0.067942 0.371681 -0.925871
-1.27682 0.316744 1.61094 71 127 55 0.136538 0.45848 -0.878154
-1.27818 0.31818 1.61094 59 119 44 0.151132 -0.794566 -0.588068
-1.27957 0.31976 1.61094 59 119 44 -0.193684 -0.400474 -0.895605
-1.27215 0.313942 1.61094 59 119 44 -0.291456 0.070617 -0.953974
-1.28068 0.322775 1.61094 59 119 44 -0.278874 0.239237 -0.930051
-1.28119 0.323563 1.61094 59 119 44 -0.192524 0.349395 -0.916983
-1.29024 0.310714 1.60847 68 124 48 0.240618 -0.655801 -0.715562
-1.28722 0.310714 1.60892 68 124 48 -0.01397 -0.351785 -0.935977
-1.28722 0.313729 1.61072 68 124 48 -0.113547 -0.495868 -0.860942
-1.32944 0.304684 1.60983 45 110 33 -0.150179 0.416209 -0.896781
-1.29627 0.328805 1.60827 56 117 42 -0.025801 0.501084 -0.865014
-1.29325 0.32579 1.60836 39 108 29 0.115616 0.405353 -0.90682
-1.29325 0.328805 1.60917 59 119 44 0.019568 -0.176116 -0.984175
-1.32944 0.307699 1.60931 59 119 44 -0.157923 -0.017042 -0.987304
-1.29929 0.33182 1.61048 59 119 44 -0.22341 0.20987 -0.951863
-1.29627 0.33182 1.61088 68 124 48 -0.152902 -0.165539 -0.974278
-1.29325 0.33182 1.61038 68 124 48 -0.044447 -0.210224 -0.976642
-1.30532 0.33182 1.60927 66 124 50 -0.197435 0.22161 -0.954939
-1.3023 0.33182 1.60909 56 117 42 -0.040115 0.23461 -0.971262
-1.29024 0.32579 1.60943 65 126 50 0.14504 0.262136 -0.954069
-1.29024 0.328805 1.60995 62 116 48 -0.37731 -0.281103 -0.882394
-1.28722 0.32579 1.6104 62 116 48 -0.275368 -0.203413 -0.939572
-1.28421 0.32579 1.61085 62 116 48 -0.371025 -0.44746 -0.813708
-1.33245 0.313729 1.61073 85 127 57 0.300466 -0.388928 -0.870893
-1.32944 0.313729 1.60854 62 116 48 -0.356252 -0.006339 -0.934369
-1.32944 0.316744 1.60974 85 127 57 0.361743 -0.402458 -0.840934
-1.32642 0.31976 1.60856 79 127 57 0.457631 -0.201238 -0.86607
-1.32341 0.322775 1.60798 78 127 57 0.462562 0.014663 -0.886466
-1.26612 0.301669 1.60941 75 127 55 0.354496 0.376169 -0.856055
-1.32039 0.32579 1.60892 48 104 37 -0.148996 0.621569 -0.76906
-1.27818 0.313729 1.60897 48 104 37 -0.012508 0.646265 -0.76301
-1.27516 0.313729 1.60971 89 126 57 -0.067369 -0.781188 -0.62065
-1.27215 0.310714 1.60845 91 125 52 0.218321 -0.772639 -0.596125
-1.31738 0.328805 1.61052 91 125 52 0.132243 -0.783059 -0.607725
-1.26913 0.310714 1.60947 95 121 50 -0.214866 -0.78372 -0.582766
-1.31436 0.328805 1.60846 95 121 50 -0.473367 -0.674087 -0.567036
-1.27215 0.313729 1.61079 76 129 53 0.237031 -0.807145 -0.540679
-1.31134 0.328805 1.60844 47 107 36 -0.511258 0.171413 -0.84216
-1.26612 0.304684 1.60863 48 114 37 -0.353336 0.38758 -0.851431
-1.26612 0.307699 1.60931 48 117 38 -0.317196 0.356656 -0.87874
-1.26612 0.310714 1.61087 50 122 40 -0.455389 0.105741 -0.883991
-1.28119 0.316744 1.61046 82 128 56 0.300924 -0.683917 -0.664607
-1.27818 0.316744 1.61052 45 109 36 0.084211 0.543805 -0.834976
-1.28119 0.31976 1.61072 45 109 36 0.347726 0.612194 -0.710145
-1.28119 0.322775 1.61086 43 110 35 0.069105 0.410566 -0.909208
-1.32642 0.289608 1.6104 53 110 42 -0.033967 0.303184 -0.952326
-1.32642 0.292623 1.60949 67 119 52 -0.162162 0.531117 -0.831636
-1.32642 0.295639 1.60884 62 116 48 -0.306886 -0.13384 -0.942289
-1.32642 0.298654 1.60871 85 127 57 0.207498 -0.109408 -0.972098
-1.32642 0.301669 1.608 62 116 48 -0.166232 -0.420638 -0.891869
-1.28421 0.322775 1.61049 62 116 48 -0.352538 -0.149097 -0.923844
-1.32944 0.310714 1.60866 62 116 48 -0.354987 -0.073125 -0.932007
-1.34272 0.31976 1.61396 62 116 48 -0.334398 -0.047771 -0.94122
-1.34205 0.322775 1.61396 76 125 51 0.04685 -0.631769 -0.77374
-1.33758 0.313729 1.61396 76 125 51 -0.254912 -0.274849 -0.92708
-1.33762 0.316744 1.61396 69 120 52 -0.064381 0.148662 -0.98679
-1.33761 0.31976 1.61396 69 120 52 0.189217 0.034083 -0.981344
-1.26266 0.301669 1.61396 63 115 48 -0.140404 0.245378 -0.959206
-1.33848 0.322561 1.61396 63 115 48 0.008382 0.247877 -0.968755
-1.26146 0.304684 1.61396 69 123 48 -0.291456 0.070617 -0.953974
-1.34094 0.322775 1.61396 47 107 36 -0.349269 0.089659 -0.932723
-1.26102 0.307699 1.61396 48 114 37 -0.251906 0.232421 -0.939427
-1.33848 0.323351 1.61396 48 117 38 -0.293682 0.317295 -0.901707
-1.2631 0.312806 1.61396 59 115 44 -0.22174 0.246531 -0.943427
-1.26416 0.313729 1.61396 42 109 32 -0.259253 0.198898 -0.945107
-1.26148 0.310714 1.61396 48 114 38 -0.125998 0.282502 -0.950956
-1.33098 0.298654 1.61396 50 122 40 -0.21587 0.104779 -0.970784
-1.32341 0.325768 1.61396 78 123 50 -0.044019 -0.73697 -0.674491
-1.34057 0.32579 1.61396 68 124 48 -0.033937 0.481902 -0.875568
-1.33237 0.301669 1.61396 68 124 48 -0.040322 0.552001 -0.832868
-1.32338 0.32579 1.61396 68 124 48 0.001341 0.510941 -0.859615
-1.33547 0.323099 1.61396 68 124 48 0.120683 0.387018 -0.91414
-1.26913 0.31708 1.61396 82 128 56 0.215909 -0.613553 -0.759563
-1.32039 0.328217 1.61396 82 128 56 0.306648 -0.411432 -0.858307
-1.27188 0.31976 1.61396 82 128 56 0.359884 -0.027088 -0.932604
-1.33245 0.320742 1.61396 67 122 50 0.401568 0.133856 -0.905994
-1.27215 0.320158 1.61396 61 121 46 0.170894 0.500795 -0.848528
-1.33499 0.322775 1.61396 65 119 50 0.207568 0.373041 -0.904299
-1.31969 0.328805 1.61396 72 123 53 0.176953 0.091527 -0.979954
-1.32944 0.321404 1.61396 69 121 53 0.074519 0.256396 -0.963695
-1.31738 0.3307 1.61396 42 118 38 0.071151 0.37992 -0.922279
-1.27454 0.322775 1.61396 38 117 35 -0.012048 0.480598 -0.876858
-1.31587 0.33182 1.61396 35 114 31 -0.022661 0.451891 -0.891785
-1.27466 0.32579 1.61396 98 122 55 -0.244261 -0.701266 -0.669748
-1.33245 0.30181 1.61396 90 125 52 0.169251 -0.742569 -0.648032
-1.31436 0.332525 1.61396 92 125 52 0.199821 -0.717187 -0.667619
-1.33339 0.304684 1.61396 95 121 50 -0.166291 -0.688048 -0.706355
-1.26612 0.315104 1.61396 95 121 50 -0.185203 -0.769892 -0.61071
-1.31134 0.333775 1.61396 39 107 35 0.323064 0.689961 -0.647752
-1.26866 0.316744 1.61396 39 107 35 0.404053 0.723998 -0.559078
-1.27516 0.326912 1.61396 48 111 39 -0.182997 0.684318 -0.705847
-1.27736 0.328805 1.61396 48 111 39 -0.169582 0.679857 -0.713468
-1.33494 0.307699 1.61396 85 127 57 0.355482 -0.783348 -0.5099
-1.28119 0.330557 1.61396 85 127 57 0.392367 -0.763569 -0.512845
-1.27818 0.329276 1.61396 85 127 57 0.372192 -0.706672 -0.601737
-1.30833 0.333956 1.61396 71 107 48 -0.462364 0.127401 -0.87749
-1.30532 0.334269 1.61396 52 109 38 -0.465802 0.265953 -0.843977
-1.3023 0.334626 1.61396 52 109 38 -0.395952 0.1929 -0.897781
-1.29929 0.334604 1.61396 52 109 38 -0.459047 0.237856 -0.855979
-1.29627 0.334364 1.61396 60 109 42 -0.382241 0.019436 -0.923858
-1.29325 0.334223 1.61396 60 109 42 -0.218639 -0.124023 -0.967892
-1.28366 0.33182 1.61396 68 87 37 -0.296923 -0.068125 -0.952468
-1.29024 0.334037 1.61396 42 85 26 -0.173999 -0.200164 -0.964188
-1.28722 0.333181 1.61396 68 87 37 -0.325986 0.016362 -0.945233
-1.28421 0.332143 1.61396 42 85 26 -0.244426 -0.225093 -0.94318
-1.32944 0.298654 1.6122 71 107 47 -0.401021 0.369569 -0.838213
-1.2631 0.301669 1.61347 51 112 39 -0.288478 0.376078 -0.880537
-1.2631 0.304684 1.6122 85 127 57 0.446799 -0.640914 -0.62418
-1.2631 0.307699 1.61214 52 111 43 0.606638 0.596499 -0.525528
-1.2631 0.310714 1.61287 51 112 39 -0.351705 0.499454 -0.791738
-1.26913 0.313729 1.61171 81 127 57 0.547492 -0.45763 -0.70059
-1.26612 0.313729 1.61295 51 112 39 -0.24894 0.580861 -0.775003
-1.31436 0.33182 1.61299 38 90 30 0.488176 0.551924 -0.676065
-1.31134 0.33182 1.61183 82 122 53 0.615682 -0.366126 -0.697773
-1.27516 0.316744 1.61172 38 90 30 0.531925 0.468561 -0.705342
-1.30833 0.33182 1.61115 43 120 35 -0.097455 0.470326 -0.877095
-1.27818 0.31976 1.61125 83 127 58 0.648923 -0.195756 -0.735241
-1.27516 0.31976 1.61274 39 117 30 -0.074559 0.402617 -0.912327
-1.33547 0.313729 1.61105 83 127 58 0.59201 -0.067047 -0.803137
-1.33547 0.316744 1.61263 73 124 55 0.471658 0.168974 -0.86544
-1.33245 0.304684 1.61296 68 119 52 0.466398 0.354972 -0.810227
-1.33547 0.31976 1.61343 68 119 52 0.43016 0.475956 -0.767091
-1.33245 0.307699 1.61221 43 110 35 0.015339 0.712579 -0.701424
-1.33245 0.316744 1.61144 68 118 50 0.02101 0.66812 -0.743757
-1.33245 0.31976 1.61339 38 105 30 -0.020982 0.734374 -0.678421
-1.33245 0.310714 1.611 68 118 50 0.138789 0.613357 -0.777516
-1.27215 0.316744 1.61242 46 107 37 -0.021038 0.697064 -0.7167
-1.32944 0.31976 1.61195 52 99 42 0.54206 -0.10263 -0.834049
-1.33848 0.322775 1.6138 61 125 51 0.606331 0.001369 -0.795211
-1.33547 0.322775 1.61386 69 126 56 0.521921 0.102084 -0.846863
-1.28722 0.328805 1.61107 69 126 56 0.43394 0.330546 -0.838114
-1.26913 0.316744 1.61373 66 124 52 0.269353 0.42153 -0.865887
-1.29024 0.33182 1.611 39 107 35 0.391098 0.622127 -0.678234
-1.27215 0.31976 1.61373 48 111 39 -0.159149 0.662362 -0.732085
-1.28722 0.33182 1.61237 90 120 62 -0.273897 -0.514926 -0.8123
-1.28421 0.328805 1.61197 90 120 62 -0.313497 -0.266837 -0.911328
-1.27818 0.322775 1.61158 71 107 48 -0.448377 0.133224 -0.883861
-1.28119 0.328805 1.61172 73 113 51 -0.42787 0.132199 -0.89412
-1.28421 0.33182 1.61369 52 109 38 -0.432071 0.242381 -0.868658
-1.27516 0.322775 1.61367 85 127 57 0.421281 -0.624429 -0.657732
-1.27818 0.32579 1.61269 50 109 37 -0.500206 0.234042 -0.833677
-1.27516 0.32579 1.61349 85 127 57 0.40577 -0.624389 -0.66745
-1.27818 0.328805 1.61355 52 109 38 -0.48513 0.268139 -0.832316
-1.33245 0.324547 1.61697 85 127 57 0.355916 -0.56719 -0.742711
-1.33335 0.32579 1.61697 62 116 48 -0.394422 -0.538443 -0.744655
-1.26083 0.301669 1.61697 85 127 57 0.468496 -0.387998 -0.793706
-1.32944 0.324107 1.61697 72 125 50 0.103103 -0.814661 -0.570698
-1.26012 0.304684 1.61697 83 127 58 0.529016 -0.211911 -0.821728
-1.33295 0.328805 1.61697 48 114 37 -0.364457 0.342928 -0.865778
-1.26009 0.304773 1.61697 79 128 57 0.527155 0.012196 -0.849682
-1.33523 0.298654 1.61697 82 122 53 0.526014 -0.142923 -0.838381
-1.33245 0.329284 1.61697 60 109 42 -0.381294 0.188489 -0.905034
-1.33118 0.33182 1.61697 60 109 42 -0.319832 -0.036953 -0.946753
-1.33654 0.304684 1.61697 75 124 58 0.513619 0.273202 -0.813361
-1.25921 0.307699 1.61697 42 85 26 -0.128962 -0.179044 -0.975352
-1.33848 0.306555 1.61697 63 115 48 0.07369 0.65743 -0.749904
-1.2591 0.310714 1.61697 95 121 50 -0.139947 -0.723811 -0.675657
-1.26009 0.313289 1.61697 58 106 41 -0.194297 -0.116578 -0.973991
-1.26046 0.313729 1.61697 55 93 35 -0.186548 -0.16339 -0.968764
-1.32522 0.32579 1.61697 58 109 43 0.25602 0.570155 -0.780626
-1.32341 0.327109 1.61697 76 126 57 0.527917 0.159119 -0.834257
-1.26913 0.320554 1.61697 51 127 43 -0.455542 0.127095 -0.881095
-1.27118 0.322775 1.61697 68 87 37 -0.259673 0.001197 -0.965696
-1.27215 0.324083 1.61697 71 107 47 -0.224453 -0.060099 -0.97263
-1.32126 0.328805 1.61697 71 107 47 -0.26868 0.131031 -0.954276
-1.27294 0.32579 1.61697 75 127 57 -0.220145 0.167416 -0.960993
-1.32039 0.329566 1.61697 51 112 39 -0.142215 0.34104 -0.929229
-1.2631 0.31614 1.61697 69 118 50 -0.196404 -0.041661 -0.979638
-1.26407 0.316744 1.61697 60 126 45 -0.064383 0.100527 -0.992849
-1.31802 0.33182 1.61697 54 116 40 -0.103896 0.247556 -0.963287
-1.26612 0.318179 1.61697 46 119 35 -0.05736 0.291899 -0.954728
-1.31738 0.332372 1.61697 48 126 40 -0.001145 0.191268 -0.981537
-1.2682 0.31976 1.61697 43 110 35 0.06488 0.676192 -0.733863
-1.31436 0.334601 1.61697 43 110 35 -0.009736 0.680152 -0.733006
-1.31401 0.334835 1.61697 53 111 42 -0.038125 0.634007 -0.772387
-1.2738 0.328805 1.61697 43 117 35 -0.061955 0.357229 -0.93196
-1.31134 0.336069 1.61697 52 99 42 0.509765 0.001338 -0.860313
-1.27511 0.33182 1.61697 66 124 52 0.238295 0.327837 -0.914187
-1.30833 0.336453 1.61697 61 103 47 0.271991 0.283504 -0.91959
-1.28119 0.333559 1.61697 43 65 41 0.435377 0.403246 -0.804885
-1.30532 0.33677 1.61697 61 103 47 0.175723 0.533178 -0.827552
-1.27818 0.332139 1.61697 43 65 41 0.591751 0.332353 -0.73442
-1.27516 0.331882 1.61697 77 119 62 0.345478 0.16085 -0.924539
-1.3023 0.337024 1.61697 62 86 59 0.189385 0.737525 -0.648221
-1.29929 0.336275 1.61697 59 101 45 0.21918 0.607798 -0.763245
-1.29627 0.335872 1.61697 62 86 59 0.215923 0.632235 -0.74408
-1.29325 0.335739 1.61697 31 75 28 -0.009708 0.764191 -0.644917
-1.28722 0.334594 1.61697 80 100 47 -0.632208 0.119927 -0.765461
-1.28807 0.334835 1.61697 80 100 47 -0.65446 0.329666 -0.680443
-1.29024 0.335547 1.61697 80 100 47 -0.658352 0.387751 -0.645152
-1.28421 0.334169 1.61697 80 100 47 -0.652256 0.530906 -0.541018
-1.32642 0.325101 1.61697 52 111 34 -0.533695 0.547164 -0.644811
-1.3415 0.313729 1.61516 58 114 41 -0.470754 0.594725 -0.651685
-1.3415 0.316744 1.61481 58 114 41 -0.512135 0.663257 -0.545718
-1.3415 0.31976 1.6144 58 114 41 -0.412975 0.668389 -0.618633
-1.33848 0.313729 1.61442 55 114 38 -0.41803 0.725356 -0.546909
-1.33848 0.316744 1.61439 69 105 48 -0.694456 0.055843 -0.717365
-1.33848 0.31976 1.6142 87 119 60 -0.61869 -0.055469 -0.783674
-1.33245 0.298654 1.61525 87 119 60 -0.500633 -0.083204 -0.861652
-1.33245 0.301669 1.61402 58 130 44 -0.452968 0.022715 -0.891237
-1.26009 0.307699 1.615 58 130 44 -0.537641 -0.118019 -0.834873
-1.33848 0.32579 1.61472 33 107 27 -0.032352 0.651261 -0.758164
-1.33547 0.32579 1.6153 58 130 44 -0.521706 -0.171909 -0.835626
-1.33245 0.322775 1.61513 33 104 27 0.220041 0.688214 -0.691335
-1.32944 0.322775 1.61552 37 96 27 0.356776 0.568562 -0.741248
-1.33547 0.328805 1.61582 37 96 27 0.409649 0.598718 -0.688277
-1.33547 0.304684 1.616 38 95 26 0.321632 0.542454 -0.776077
-1.33848 0.307699 1.61628 74 121 51 0.623799 0.067399 -0.778673
-1.33245 0.33182 1.61656 81 125 56 0.511885 0.360096 -0.779939
-1.33547 0.307699 1.61429 39 104 25 -0.139925 0.672544 -0.726709
-1.32341 0.32579 1.61402 38 110 27 -0.052885 0.713228 -0.698934
-1.32039 0.328805 1.61538 41 113 31 -0.142977 0.702846 -0.696825
-1.31738 0.33182 1.6159 41 113 31 -0.340377 0.714954 -0.610724
-1.31134 0.334835 1.61517 41 113 31 -0.090793 0.569255 -0.817133
-1.30833 0.334835 1.61504 37 96 24 0.190928 0.578895 -0.792734
-1.30532 0.334835 1.61473 64 120 49 0.334327 -0.850591 -0.405858
-1.3023 0.334835 1.61429 61 103 47 0.31229 0.351515 -0.88256
-1.29929 0.334835 1.61438 61 103 47 0.291051 0.215125 -0.932207
-1.29627 0.334835 1.6149 61 103 47 0.141264 0.423793 -0.894675
-1.29325 0.334835 1.61516 64 120 49 0.341198 -0.845984 -0.409749
-1.28119 0.33182 1.61511 69 105 48 -0.642247 0.085924 -0.761667
-1.29024 0.334835 1.61563 55 85 51 0.079657 0.774843 -0.627116
-1.2631 0.313729 1.6146 55 85 51 -0.055593 0.782573 -0.620072
-1.26009 0.310714 1.61514 87 119 60 -0.540166 0.063466 -0.839162
-1.26913 0.31976 1.61623 80 100 47 -0.457226 0.011928 -0.889271
-1.27215 0.322775 1.61565 87 119 60 -0.37077 0.197648 -0.90745
-1.26612 0.316744 1.61552 55 85 51 -0.082664 0.764283 -0.639561
-1.27516 0.328805 1.61508 80 100 47 -0.569915 0.217772 -0.792321
-1.27818 0.33182 1.61676 80 100 47 -0.258856 -0.045826 -0.964828
-1.27516 0.33182 1.61693 80 100 47 -0.421849 0.08382 -0.902783
-1.32642 0.328941 1.61999 87 119 60 -0.324932 0.202905 -0.923715
-1.32769 0.33182 1.61999 80 100 47 -0.595792 0.324537 -0.734648
-1.32341 0.329946 1.61999 58 114 41 -0.433374 0.57285 -0.695723
-1.32042 0.33182 1.61999 58 114 41 -0.315297 0.622509 -0.71629
-1.32642 0.334753 1.61999 40 111 29 -0.178524 0.611864 -0.770552
-1.32636 0.334835 1.61999 40 111 29 -0.076783 0.644685 -0.760583
-1.32491 0.33785 1.61999 82 127 58 0.646374 -0.158944 -0.746282
-1.32039 0.331833 1.61999 36 110 27 -0.094789 0.62561 -0.774356
-1.31738 0.334216 1.61999 36 110 27 0.020629 0.562491 -0.826546
-1.31669 0.334835 1.61999 58 130 44 -0.089202 -0.184513 -0.978774
-1.31436 0.336744 1.61999 53 126 40 -0.295541 0.038986 -0.954534
-1.31293 0.33785 1.61999 41 113 31 -0.174476 0.587149 -0.790452
-1.29325 0.337418 1.61999 74 123 54 0.522839 0.168321 -0.835648
-1.27338 0.33182 1.61999 41 113 31 -0.048949 0.552421 -0.832127
-1.29539 0.33785 1.61999 64 116 47 0.406879 0.44226 -0.799284
-1.27516 0.334287 1.61999 58 130 44 -0.300726 -0.232315 -0.924983
-1.27683 0.334835 1.61999 60 113 44 0.385991 0.443649 -0.808818
-1.29049 0.33785 1.61999 33 104 27 -0.026656 0.64395 -0.764603
-1.28119 0.335209 1.61999 33 97 26 0.198558 0.604908 -0.771143
-1.28421 0.336163 1.61999 49 85 36 0.474261 0.267255 -0.838839
-1.27818 0.335214 1.61999 52 86 39 0.173252 0.5529 -0.815037
-1.28711 0.33785 1.61999 54 82 31 -0.284463 -0.233515 -0.929813
-1.32304 0.340865 1.61999 44 109 32 0.116383 0.495704 -0.860658
-1.31134 0.338712 1.61999 120 98 45 -0.696373 -0.29431 -0.654558
-1.30833 0.339501 1.61999 120 98 45 -0.720786 -0.216392 -0.658515
-1.30532 0.339806 1.61999 41 101 28 -0.154289 0.856669 -0.492254
-1.259 0.304684 1.61999 41 101 28 0.014801 0.8679 -0.496519
-1.25848 0.307699 1.61999 41 101 28 0.100329 0.804089 -0.585982
-1.25814 0.310714 1.61999 50 101 37 0.009691 0.776628 -0.629885
-1.25857 0.313729 1.61999 50 101 37 0.026353 0.811384 -0.583919
-1.2631 0.319296 1.61999 44 70 36 0.254861 0.252045 -0.933552
-1.2637 0.31976 1.61999 44 70 36 0.359651 0.335164 -0.870814
-1.26009 0.31628 1.61999 53 91 44 0.356243 0.340953 -0.869967
-1.26051 0.316744 1.61999 80 100 47 -0.55595 0.469135 -0.686172
-1.3023 0.339743 1.61999 58 127 43 -0.710479 -0.169598 -0.682976
-1.26612 0.321715 1.61999 53 91 44 0.165268 0.614069 -0.771755
-1.29929 0.339075 1.61999 80 100 47 -0.628832 0.534423 -0.564768
-1.26778 0.322775 1.61999 59 127 44 -0.680242 -0.189727 -0.708007
-1.29627 0.338234 1.61999 52 111 34 -0.598499 0.608615 -0.520947
-1.29024 0.338016 1.61999 60 115 34 -0.269446 0.006041 -0.962997
-1.28722 0.337926 1.61999 60 115 34 -0.397545 0.308519 -0.864161
-1.33547 0.292623 1.617 52 111 34 -0.563063 0.714974 -0.414454
-1.33848 0.295639 1.61744 52 111 34 -0.591047 0.709585 -0.383604
-1.33245 0.328805 1.61731 60 115 34 -0.431757 0.457825 -0.777163
-1.33848 0.298654 1.61762 123 96 42 0.360706 -0.77479 -0.519222
-1.33547 0.298654 1.61707 58 114 41 -0.586049 0.741037 -0.327735
-1.31134 0.33785 1.61896 91 117 62 -0.855921 -0.163524 -0.490571
-1.30833 0.33785 1.61821 55 114 38 -0.519505 0.74894 -0.411343
-1.30532 0.33785 1.61804 91 117 62 -0.826658 -0.172533 -0.535602
-1.32944 0.328805 1.61982 91 117 62 -0.811217 -0.160444 -0.562304
-1.32944 0.33182 1.61798 87 119 60 -0.759955 -0.17514 -0.625935
-1.3023 0.33785 1.61791 55 114 38 -0.558538 0.744174 -0.366388
-1.29929 0.33785 1.61894 38 99 28 0.29437 0.568054 -0.768544
-1.33848 0.301669 1.61793 38 99 28 0.257437 0.532037 -0.806637
-1.29627 0.33785 1.6196 55 114 38 -0.35429 0.818204 -0.452792
-1.28722 0.334835 1.61741 39 104 25 -0.330533 0.790405 -0.515759
-1.3415 0.304684 1.61723 83 124 58 0.659036 0.192926 -0.726946
-1.28119 0.334835 1.61934 36 98 22 -0.149061 0.766383 -0.624851
-1.33848 0.304684 1.61765 78 118 55 0.538443 0.394422 -0.744655
-1.27818 0.334835 1.61934 41 113 31 -0.15608 0.741002 -0.653112
-1.26009 0.304684 1.61706 49 97 34 0.314848 0.538598 -0.781526
-1.26009 0.313729 1.61746 41 113 31 -0.298145 0.773263 -0.559619
-1.2631 0.316744 1.61763 38 111 31 0.204829 0.467966 -0.859682
-1.26612 0.31976 1.61842 62 122 56 0.242241 0.175324 -0.954244
-1.32642 0.32579 1.61793 120 98 45 -0.632896 -0.192487 -0.749928
-1.32642 0.328805 1.61985 62 86 59 0.187321 0.452815 -0.871705
-1.32341 0.328805 1.61909 62 86 59 -0.006849 0.579409 -0.815008
-1.32039 0.33182 1.61997 58 79 56 0.111371 0.320694 -0.940613
-1.32642 0.334835 1.61996 58 127 43 -0.629943 -0.148841 -0.762246
-1.31436 0.334835 1.61734 59 101 45 0.208779 0.604685 -0.768614
-1.29024 0.33785 1.61983 63 90 50 0.34577 0.112545 -0.931545
-1.28722 0.33785 1.61993 63 90 50 0.212562 0.357162 -0.909534
-1.28421 0.334835 1.61798 59 127 44 -0.607401 -0.165104 -0.777049
-1.28421 0.337832 1.62301 46 101 31 0.206322 0.696531 -0.687223
-1.28424 0.33785 1.62301 46 101 31 0.085268 0.60266 -0.79343
-1.28119 0.336752 1.62301 41 97 25 0.077867 0.416659 -0.905722
-1.31134 0.341294 1.62301 41 101 28 -0.227254 0.802346 -0.551903
-1.31315 0.343881 1.62301 41 101 28 0.11082 0.758011 -0.642758
-1.30833 0.341675 1.62301 74 114 63 0.307538 0.098993 -0.946372
-1.30532 0.342645 1.62301 74 114 63 0.27078 0.253767 -0.928591
-1.27818 0.336626 1.62301 44 70 36 0.256087 0.101663 -0.961293
-1.31138 0.346896 1.62301 60 115 34 -0.466767 -0.009309 -0.884331
-1.27516 0.33573 1.62301 80 100 47 -0.605786 0.145089 -0.782287
-1.27345 0.334835 1.62301 80 100 47 -0.569269 0.360483 -0.738908
-1.30317 0.343881 1.62301 80 100 47 -0.609489 0.568969 -0.552085
-1.29627 0.34285 1.62301 52 111 34 -0.619454 0.646169 -0.445806
-1.29865 0.343881 1.62301 58 114 41 -0.534748 0.720172 -0.442037
-1.29325 0.343254 1.62301 33 104 27 0.091814 0.481672 -0.871529
-1.3023 0.344174 1.62301 33 104 27 0.255173 0.654574 -0.711632
-1.29929 0.344098 1.62301 38 98 27 0.288596 0.59792 -0.747799
-1.28722 0.339823 1.62301 55 114 38 -0.406974 0.763281 -0.501771
-1.289 0.340865 1.62301 40 97 27 0.357572 0.525841 -0.771773
-1.29024 0.341617 1.62301 39 101 24 -0.220861 0.789232 -0.573004
-1.25719 0.310714 1.62301 38 98 27 0.267169 0.595992 -0.757242
-1.25714 0.313729 1.62301 42 105 28 -0.070945 0.722485 -0.687737
-1.25847 0.316744 1.62301 78 124 54 0.731682 -0.026683 -0.681124
-1.26009 0.318627 1.62301 75 121 53 0.536192 0.342969 -0.771279
-1.26152 0.31976 1.62301 60 106 43 0.368328 0.490567 -0.789733
-1.26612 0.323494 1.62301 91 117 62 -0.785478 -0.221545 -0.577877
-1.29325 0.33785 1.62043 91 117 62 -0.832543 -0.165317 -0.528717
-1.32039 0.33785 1.62222 91 117 62 -0.793672 -0.076342 -0.603537
-1.32039 0.340865 1.621 87 119 60 -0.695733 -0.153092 -0.701796
-1.31738 0.33785 1.62194 87 119 60 -0.654635 -0.179373 -0.734356
-1.31738 0.340865 1.62189 35 69 32 0.090116 0.024972 -0.995618
-1.32642 0.33182 1.62085 69 114 49 -0.602676 -0.109977 -0.790371
-1.32039 0.343881 1.62038 117 101 42 0.425861 -0.128749 -0.895581
-1.2631 0.31976 1.62062 107 101 36 0.394704 -0.077313 -0.91555
-1.26009 0.316744 1.62046 101 99 35 0.317128 -0.096863 -0.943423
-1.31738 0.343881 1.62109 57 124 39 -0.683816 0.032428 -0.728934
-1.32341 0.33182 1.62089 57 124 39 -0.426629 0.049796 -0.903055
-1.27516 0.334835 1.62099 48 122 33 -0.179546 0.024326 -0.983449
-1.32341 0.334835 1.62154 60 113 32 -0.052218 -0.092215 -0.994369
-1.32039 0.334835 1.62198 60 113 32 -0.059267 -0.090578 -0.994124
-1.26612 0.322775 1.62163 60 113 32 0.104467 0.256654 -0.960841
-1.31738 0.334835 1.62057 63 102 43 0.548325 0.454993 -0.701656
-1.31436 0.33785 1.62099 63 102 43 0.422666 0.561897 -0.711073
-1.31436 0.340865 1.62242 58 112 36 -0.703169 -0.275846 -0.655334
-1.31134 0.340865 1.62255 66 102 41 -0.56693 0.754291 -0.331113
-1.31436 0.343881 1.62244 60 113 32 0.261619 0.020686 -0.964949
-1.30833 0.340865 1.6219 58 112 36 -0.720594 -0.32872 -0.610481
-1.30532 0.340865 1.62102 66 102 41 -0.602822 0.743534 -0.289419
-1.31436 0.346896 1.62165 60 113 32 0.063551 0.409704 -0.910002
-1.3023 0.340865 1.62075 34 104 25 0.453796 0.4901 -0.744225
-1.29929 0.340865 1.62109 55 114 38 -0.583662 0.747667 -0.316753
-1.3023 0.343881 1.62273 34 104 25 0.480324 0.463818 -0.74442
-1.29929 0.343881 1.62282 46 112 29 -0.004 0.491965 -0.870606
-1.29627 0.340865 1.62195 33 96 25 0.476951 0.411839 -0.77647
-1.29325 0.340865 1.62223 46 112 29 0.286947 0.337498 -0.896525
-1.29024 0.340865 1.6224 55 114 38 -0.595488 0.722743 -0.350767
-1.29929 0.348229 1.62602 46 112 29 -0.334026 0.676198 -0.656645
-1.30002 0.349911 1.62602 55 114 38 -0.516182 0.740466 -0.430427
-1.29627 0.346526 1.62602 33 96 25 0.469657 0.252421 -0.845994
-1.29686 0.346896 1.62602 40 108 28 -0.451164 0.73872 -0.500743
-1.29325 0.346076 1.62602 33 96 25 0.736609 0.247639 -0.629351
-1.28722 0.342611 1.62602 62 131 44 -0.686089 -0.223487 -0.69234
-1.28923 0.343881 1.62602 38 108 28 -0.400454 0.753506 -0.521407
-1.28421 0.34068 1.62602 62 131 44 -0.65922 -0.248196 -0.709808
-1.28453 0.340865 1.62602 46 97 33 0.370917 0.573533 -0.730397
-1.28119 0.339443 1.62602 38 108 28 -0.168704 0.752329 -0.63682
-1.29024 0.344451 1.62602 46 97 33 0.389995 0.571006 -0.722396
-1.25707 0.306427 1.62602 34 93 24 0.599618 0.342871 -0.723117
-1.25653 0.310714 1.62602 34 93 24 0.349265 0.513436 -0.783835
-1.25663 0.313729 1.62602 62 131 44 -0.555583 -0.33335 -0.761712
-1.25707 0.316897 1.62602 34 93 24 0.255378 0.68048 -0.686825
-1.25918 0.31976 1.62602 34 93 24 0.315852 0.691635 -0.649522
-1.2631 0.322584 1.62602 41 111 30 -0.103691 0.801779 -0.588556
-1.26335 0.322775 1.62602 41 111 30 -0.098661 0.850776 -0.516185
-1.26612 0.325171 1.62602 114 70 27 0.332753 0.063941 -0.940844
-1.26684 0.32579 1.62602 36 110 27 0.017712 0.8461 -0.53273
-1.26009 0.320592 1.62602 36 110 27 0.058189 0.801869 -0.59466
-1.27516 0.336456 1.62602 36 95 21 0.004103 0.813727 -0.581233
-1.27805 0.33785 1.62602 37 95 22 0.04827 0.867486 -0.495115
-1.27215 0.333979 1.62602 48 109 38 0.297822 0.64877 -0.700285
-1.27311 0.334835 1.62602 36 91 21 0.163255 0.819271 -0.549675
-1.25701 0.316744 1.62602 37 91 22 0.26118 0.829903 -0.492997
-1.27818 0.337907 1.62602 38 84 23 0.231023 0.830766 -0.506415
-1.31134 0.343881 1.62379 58 112 36 -0.75626 -0.229217 -0.612805
-1.31134 0.346896 1.62302 76 114 53 0.515556 0.360404 -0.777374
-1.30833 0.343881 1.62432 68 107 47 0.313277 0.516828 -0.79671
-1.30833 0.346896 1.62388 68 107 47 0.385226 0.515261 -0.765576
-1.25707 0.307699 1.62389 40 108 28 -0.274853 0.754654 -0.595779
-1.28421 0.33785 1.62303 40 108 28 -0.195968 0.745297 -0.637283
-1.25707 0.310714 1.62338 38 111 31 0.282872 0.363693 -0.887531
-1.28119 0.33785 1.62449 40 108 28 -0.110308 0.775098 -0.622138
-1.25707 0.313729 1.62325 38 111 31 0.437995 0.16734 -0.883265
-1.30532 0.343881 1.62406 38 111 31 0.367921 0.286829 -0.884513
-1.25707 0.316744 1.62588 57 124 39 -0.735722 -0.023823 -0.676864
-1.26009 0.31976 1.62485 57 124 39 -0.488343 0.271302 -0.829408
-1.30532 0.346896 1.62467 30 68 30 0.000978 0.000978 -0.999999
-1.30532 0.349911 1.62338 62 131 44 -0.692409 -0.213168 -0.689297
-1.27818 0.33785 1.62589 48 122 33 -0.178104 0.265117 -0.947624
-1.29627 0.343881 1.6236 62 131 44 -0.591778 -0.277644 -0.756778
-1.29325 0.343881 1.62335 60 115 34 -0.243178 0.404302 -0.881706
-1.3023 0.346896 1.62562 60 115 34 -0.249886 0.523053 -0.814845
-1.29929 0.346896 1.62527 60 115 34 -0.443184 0.640526 -0.627147
-1.3023 0.349911 1.62469 60 113 32 -0.009369 0.057255 -0.998316
-1.28722 0.340865 1.62426 49 117 31 -0.082489 0.049493 -0.995362
-1.29024 0.343881 1.6253 38 97 27 0.31389 0.419035 -0.851987
-1.28119 0.342265 1.62903 36 103 27 0.342738 0.522958 -0.780414
-1.2834 0.343881 1.62903 38 97 27 0.263164 0.76743 -0.584633
-1.28722 0.345767 1.62903 37 97 26 0.324071 0.585262 -0.743267
-1.28873 0.346896 1.62903 56 114 47 0.153566 0.484099 -0.861432
-1.29024 0.348213 1.62903 46 125 38 0.408054 0.200371 -0.890698
-1.29267 0.349911 1.62903 51 119 43 0.201961 0.468251 -0.860205
-1.28421 0.344431 1.62903 36 95 25 0.308265 0.507452 -0.804652
-1.25678 0.310714 1.62903 46 124 38 0.339818 0.066914 -0.938108
-1.25662 0.313729 1.62903 35 100 26 0.443649 0.385991 -0.808818
-1.25707 0.31899 1.62903 120 98 45 0.41857 0.15 -0.895712
-1.25759 0.31976 1.62903 120 98 45 0.422373 0.072446 -0.903522
-1.2631 0.324518 1.62903 46 112 29 0.329551 0.644492 -0.689947
-1.26442 0.32579 1.62903 120 98 45 -0.157685 0.001118 -0.987489
-1.26009 0.322312 1.62903 46 112 29 0.653987 0.076854 -0.752592
-1.26079 0.322775 1.62903 120 98 45 -0.321435 -0.001241 -0.946931
-1.26913 0.330891 1.62903 46 112 29 -0.032428 0.728934 -0.683816
-1.2695 0.33182 1.62903 120 98 45 0.384009 0.027336 -0.922924
-1.27516 0.337397 1.62903 64 105 33 0.499942 -0.023033 -0.865753
-1.27596 0.33785 1.62903 120 98 45 -0.388901 -0.051765 -0.919824
-1.27088 0.334835 1.62903 120 98 45 -0.402502 -0.09204 -0.91078
-1.27215 0.335654 1.62903 59 106 36 -0.519223 0.001342 -0.854638
-1.25638 0.316744 1.62903 72 96 30 0.441728 -0.302235 -0.844707
-1.27818 0.339328 1.62903 80 83 25 0.380863 -0.008977 -0.924588
-1.27972 0.340865 1.62903 61 131 43 -0.509621 -0.252487 -0.822519
-1.2631 0.322775 1.62637 88 126 57 0.932276 -0.135529 -0.3354
-1.26612 0.32579 1.62692 63 99 42 0.669402 0.439035 -0.59929
-1.27215 0.334835 1.6277 63 99 42 0.556861 0.587327 -0.587327
-1.28119 0.340865 1.62731 55 114 38 -0.497514 0.738833 -0.454539
-1.29627 0.346896 1.62629 55 114 38 -0.563114 0.727287 -0.392374
-1.29325 0.346896 1.62674 31 87 21 0.562613 0.582888 -0.586267
-1.29627 0.349911 1.62822 31 87 21 0.635358 0.544352 -0.547723
-1.29325 0.349911 1.62888 35 91 26 0.72545 0.4698 -0.503001
-1.28722 0.343881 1.62723 55 114 38 -0.569972 0.647313 -0.506081
-1.28421 0.340865 1.6262 35 91 26 0.825825 0.299303 -0.477944
-1.28421 0.343881 1.62856 55 114 38 -0.561194 0.678459 -0.474083
-1.29024 0.346896 1.62817 46 87 31 0.521969 0.613187 -0.592916
-1.28119 0.343915 1.63205 46 87 31 0.434921 0.621554 -0.651548
-1.25724 0.310714 1.63205 55 114 38 -0.589268 0.676072 -0.442368
-1.28368 0.346896 1.63205 44 99 31 0.449441 0.619862 -0.643253
-1.25711 0.313729 1.63205 55 114 38 -0.551867 0.710964 -0.435859
-1.28421 0.347836 1.63205 44 99 31 0.470976 0.605062 -0.641936
-1.28553 0.349911 1.63205 37 106 26 -0.503001 0.72545 -0.4698
-1.2572 0.316744 1.63205 38 111 29 -0.375601 0.765835 -0.521939
-1.25774 0.31976 1.63205 45 102 34 0.843541 0.292531 -0.450404
-1.25946 0.322775 1.63205 38 108 28 -0.293166 0.738521 -0.607157
-1.26009 0.323638 1.63205 40 95 29 0.790467 0.351141 -0.501858
-1.26268 0.32579 1.63205 41 111 30 -0.07085 0.744653 -0.663681
-1.26913 0.334658 1.63205 38 96 27 0.26998 0.778363 -0.5668
-1.2692 0.334835 1.63205 41 111 30 -0.070866 0.741929 -0.666723
-1.27215 0.337016 1.63205 38 96 27 0.162547 0.721585 -0.672973
-1.27345 0.33785 1.63205 38 96 27 0.347934 0.704035 -0.619093
-1.2631 0.326179 1.63205 35 110 26 0.079811 0.761831 -0.64284
-1.26535 0.328805 1.63205 36 110 27 0.125333 0.809503 -0.573582
-1.26612 0.329444 1.63205 37 95 22 0.086927 0.847896 -0.522988
-1.26837 0.33182 1.63205 37 95 22 0.034214 0.860831 -0.50774
-1.27818 0.340452 1.63205 37 91 22 0.20583 0.854872 -0.476264
-1.27862 0.340865 1.63205 37 91 22 0.1947 0.783401 -0.590233
-1.27516 0.338765 1.63205 37 91 22 0.121846 0.811815 -0.57106
-1.28117 0.343881 1.63205 38 84 23 0.186727 0.80915 -0.557144
-1.28119 0.343881 1.63198 70 96 30 -0.423816 0.784303 -0.453045
-1.28722 0.346896 1.62983 117 101 42 0.368748 -0.102052 -0.92391
-1.25707 0.310714 1.63126 105 119 52 0.104795 -0.14334 -0.98411
-1.29024 0.349911 1.62998 105 119 52 0.038705 -0.100633 -0.99417
-1.25707 0.313729 1.63192 69 121 39 0.003245 -0.109244 -0.99401
-1.28722 0.349911 1.63117 120 98 45 0.518711 0.29483 -0.802505
-1.25707 0.316744 1.63182 120 98 45 0.422898 0.084028 -0.902273
-1.2631 0.32579 1.63136 120 98 45 0.408209 0.089339 -0.908506
-1.26009 0.322775 1.63017 66 128 46 -0.278873 -0.10605 -0.954454
-1.26913 0.33182 1.63003 66 128 46 -0.19949 -0.059243 -0.978107
-1.27516 0.33785 1.63016 120 98 45 -0.643787 -0.206322 -0.736865
-1.26612 0.328805 1.63103 50 120 32 -0.119747 -0.082544 -0.989367
-1.28421 0.346896 1.63145 59 106 36 -0.568817 -0.180505 -0.802412
-1.25826 0.310714 1.63506 52 119 36 -0.610888 -0.299832 -0.732745
-1.25776 0.313729 1.63506 76 106 32 0.292567 0.098397 -0.951169
-1.22609 0.343881 1.63506 56 111 30 0.367483 0.318688 -0.873724
-1.25785 0.316744 1.63506 46 112 29 0.243623 0.611415 -0.752874
-1.22692 0.344573 1.63506 46 112 29 -0.364384 0.766015 -0.529571
-1.25804 0.31976 1.63506 104 70 23 0.370671 0.051446 -0.927338
