ply
format ascii 1.0
element vertex 744
property float x
property float y
property float z
property uchar red
property uchar green
property uchar blue
property float nx
property float ny
property float nz
end_header
-1.07616 -0.039041 1.72409 57 66 78 0.435822 0.619502 -0.652898
-1.07616 -0.036026 1.72533 52 64 77 0.449441 0.643253 -0.619862
-1.07315 -0.039041 1.72376 52 62 74 0.323105 0.651081 -0.686801
-1.07315 -0.036026 1.72527 46 57 73 0.570954 0.634955 -0.520427
-1.07013 -0.036026 1.72475 33 44 53 0.001365 0.591008 -0.806665
-1.05204 -0.129494 1.72426 31 54 78 0.244079 0.653503 -0.716491
-1.05506 -0.126479 1.72266 39 59 79 0.29085 0.67008 -0.682935
-1.05204 -0.126479 1.7232 39 58 78 0.321532 0.612366 -0.722236
-1.04601 -0.129494 1.72288 86 97 96 0.639298 -0.272618 -0.719011
-1.04601 -0.126479 1.72291 48 65 77 0.862189 0.443975 -0.243959
-1.03697 -0.129494 1.72318 78 87 86 0.461599 -0.143255 -0.875445
-1.03395 -0.129494 1.72539 43 51 56 0.279349 0.311525 -0.908249
-1.03094 -0.126479 1.72383 40 53 66 0.718383 0.462884 -0.519293
-1.06411 -0.027623 1.72853 66 77 80 0.136272 0.138727 -0.98091
-1.06109 -0.027372 1.72853 74 86 89 0.210236 0.072538 -0.974956
-1.02547 -0.036026 1.72853 48 57 78 0.186503 0.234806 -0.953983
-1.05993 -0.02698 1.72853 55 57 75 0.031733 0.323674 -0.945636
-1.01696 -0.120449 1.72853 35 50 67 0.532838 0.67067 -0.516029
-1.00079 -0.083155 1.72853 86 99 109 -0.377522 -0.674265 -0.634699
-1.01586 -0.118721 1.72853 34 47 61 0.725003 0.515963 -0.456238
-1.05807 -0.026175 1.72853 35 47 61 0.668137 0.584411 -0.460496
-1.02792 -0.034953 1.72853 68 55 69 0.190022 0.190022 -0.963215
-1.05506 -0.02521 1.72853 44 59 80 0.037145 0.212084 -0.976545
-1.03395 -0.132333 1.72853 39 58 80 -0.169213 0.334231 -0.927177
-1.01285 -0.042073 1.72853 39 54 72 0.302498 0.587391 -0.750644
-1.01288 -0.042056 1.72853 37 58 81 -0.101526 0.353311 -0.92998
-1.00983 -0.044325 1.72853 42 55 71 0.341976 0.565639 -0.750403
-1.05204 -0.026584 1.72853 42 55 71 0.384104 0.64457 -0.661055
-1.00682 -0.047116 1.72853 36 57 78 0.174654 0.776073 -0.605975
-1.00894 -0.045071 1.72853 35 58 79 0.18362 0.805802 -0.562999
-1.00591 -0.048086 1.72853 52 54 71 0.169598 0.710479 -0.682976
-1.01586 -0.040486 1.72853 52 54 71 0.41831 0.122535 -0.900001
-1.03998 -0.030261 1.72853 37 56 75 0.360672 0.768247 -0.528878
-0.991742 -0.080213 1.72853 47 56 74 -0.061724 0.887449 -0.456755
-0.99094 -0.078237 1.72853 37 56 75 0.388442 0.73263 -0.558897
-1.0403 -0.029995 1.72853 37 56 75 0.371687 0.790036 -0.487537
-0.99048 -0.075222 1.72853 38 56 76 0.155026 0.947681 -0.279047
-1.04903 -0.027019 1.72853 37 56 75 0.372164 0.723014 -0.582018
-1.04971 -0.02698 1.72853 38 56 76 0.115418 0.910831 -0.396316
-1.04601 -0.027073 1.72853 87 100 101 0.616017 -0.565386 -0.548509
-0.990109 -0.072207 1.72853 85 96 96 0.410146 -0.616049 -0.672506
-1.043 -0.02787 1.72853 85 97 96 0.62313 -0.521808 -0.582602
-0.990495 -0.069192 1.72853 86 97 95 0.667613 -0.470174 -0.57726
-0.991742 -0.066106 1.72853 35 50 62 -0.012532 0.744964 -0.666987
-0.993543 -0.063162 1.72853 35 51 64 -0.11095 0.711561 -0.693809
-0.994757 -0.060447 1.72853 45 61 71 -0.12167 0.564371 -0.816506
-1.07315 -0.123769 1.72853 47 61 70 -0.187335 0.44695 -0.874724
-1.0147 -0.117434 1.72853 47 61 70 -0.156641 0.481635 -0.862259
-1.01285 -0.115869 1.72853 88 100 98 0.635113 -0.496972 -0.591312
-1.01136 -0.114419 1.72853 82 95 94 0.707885 -0.319115 -0.630131
-1.07013 -0.125338 1.72853 82 94 94 0.660349 -0.092244 -0.745272
-1.00983 -0.113191 1.72853 27 51 78 -0.035637 0.914695 -0.402571
-1.00783 -0.111404 1.72853 27 51 78 -0.001325 0.878249 -0.478202
-1.00682 -0.110881 1.72853 28 54 80 0.126188 0.851405 -0.509103
-1.00573 -0.108389 1.72853 51 56 54 0.040693 -0.925427 -0.376734
-1.01285 -0.105875 1.72853 37 56 75 0.388797 0.788887 -0.475914
-1.01408 -0.105374 1.72853 51 56 54 0.166924 -0.804546 -0.569949
-1.00983 -0.105705 1.72853 28 52 78 0.259587 0.778761 -0.571092
-1.00682 -0.106118 1.72853 73 78 86 0.387921 0.748016 -0.538506
-1.05506 -0.13568 1.72853 73 78 86 0.500133 0.716138 -0.486841
-1.0556 -0.135525 1.72853 46 57 71 0.47571 0.61691 -0.626995
-1.05204 -0.136567 1.72853 40 54 66 0.812752 0.410368 -0.413561
-0.991704 -0.066177 1.72853 46 57 71 0.507051 0.567695 -0.648554
-1.03094 -0.129578 1.72853 40 54 66 0.778547 0.437222 -0.450224
-0.994918 -0.060147 1.72853 52 61 74 0.471295 0.732574 -0.491139
-1.0038 -0.049775 1.72853 38 50 64 0.788887 0.388797 -0.475914
-0.997772 -0.056378 1.72853 47 53 66 0.429563 0.802816 -0.413475
-0.999292 -0.054116 1.72853 47 53 66 0.418195 0.822079 -0.386393
-0.997232 -0.057131 1.72853 39 50 63 0.757132 0.441797 -0.481214
-1.01888 -0.121926 1.72853 54 60 72 0.466584 0.792708 -0.392318
-1.00079 -0.052133 1.72853 37 49 62 0.406287 0.608602 -0.681568
-1.00186 -0.051101 1.72853 84 99 102 0.84267 -0.354891 -0.404919
-1.02491 -0.036262 1.72853 76 94 100 0.789475 -0.292691 -0.539501
-1.02189 -0.037504 1.72853 39 50 63 0.703232 0.3508 -0.618388
-1.0186 -0.039041 1.72853 65 85 92 0.858729 -0.125986 -0.496702
-1.01888 -0.038876 1.72853 39 50 62 0.680626 0.286664 -0.67422
-1.03697 -0.031779 1.72853 61 79 88 0.873098 0.088575 -0.479431
-1.03395 -0.032671 1.72853 36 48 62 0.428966 0.544903 -0.720464
-1.03094 -0.03381 1.72853 52 71 81 0.918526 0.027516 -0.394403
-1.03287 -0.03301 1.72853 35 48 62 0.565722 0.433001 -0.701761
-1.01888 -0.120449 1.72597 52 71 81 0.910427 0.175247 -0.374714
-1.06411 -0.029995 1.72678 40 47 58 0.720074 0.290275 -0.630265
-1.01586 -0.117434 1.72668 46 65 77 0.899948 0.267472 -0.344315
-1.05807 -0.02698 1.72691 43 60 71 0.858739 0.348137 -0.375988
-1.00079 -0.081252 1.72581 42 55 71 0.409557 0.78512 -0.464597
-1.02792 -0.036026 1.72703 34 58 79 0.249885 0.755943 -0.605068
-1.01586 -0.108389 1.72611 34 58 79 0.347696 0.644789 -0.680701
-1.05204 -0.02698 1.72785 35 61 85 0.317075 0.741988 -0.590693
-1.03094 -0.129494 1.7284 36 62 85 0.385653 0.559607 -0.733561
-1.01285 -0.045071 1.72569 36 62 85 0.413221 0.638915 -0.648873
-1.00983 -0.045071 1.72772 74 81 80 0.223729 -0.950508 -0.215593
-1.01586 -0.042056 1.72687 74 81 80 0.257984 -0.931845 -0.255165
-1.00682 -0.048086 1.72738 74 81 80 0.064837 -0.930217 -0.361237
-1.04601 -0.029995 1.72585 47 56 74 0.059573 0.491822 -0.868655
-1.0822 -0.120449 1.72564 47 56 74 0.113698 0.639367 -0.760449
-1.0822 -0.117434 1.726 52 54 71 0.30742 0.31336 -0.898498
-1.03998 -0.03301 1.72615 39 59 79 0.410041 0.504792 -0.759639
-1.07918 -0.120449 1.72746 27 51 78 -0.031225 0.875645 -0.481944
-1.043 -0.029995 1.72689 37 56 75 0.331655 0.786678 -0.520714
-1.01285 -0.114419 1.72745 27 51 78 0.07848 0.826176 -0.557919
-1.07918 -0.117434 1.7259 28 52 78 0.16435 0.788579 -0.592565
-0.991742 -0.066177 1.72839 28 51 76 0.360994 0.596212 -0.717088
-1.07616 -0.120449 1.72693 37 56 75 0.324849 0.741819 -0.586667
-1.01285 -0.111404 1.72628 40 53 66 0.800384 0.463549 -0.380142
-1.00983 -0.111404 1.72782 88 88 79 -0.014509 -0.439235 -0.898255
-0.994757 -0.063162 1.72664 35 50 66 0.463227 0.563565 -0.68397
-1.00983 -0.108389 1.72734 37 47 61 0.657541 0.355826 -0.6641
-1.00682 -0.108389 1.72788 85 97 96 0.572176 -0.521541 -0.632938
-1.07315 -0.03301 1.72613 37 56 75 0.33846 0.787601 -0.514908
-1.07013 -0.03301 1.7268 57 66 78 0.500133 0.716138 -0.486841
-1.0038 -0.051101 1.72654 35 48 62 0.494559 0.50455 -0.707702
-1.07315 -0.123464 1.72819 38 51 67 0.515546 0.542415 -0.663324
-0.997772 -0.057131 1.72763 35 48 62 0.48429 0.419066 -0.768015
-1.00079 -0.054116 1.72592 35 50 62 -0.035321 0.724794 -0.68806
-1.05506 -0.135525 1.72835 35 50 62 -0.006937 0.670098 -0.742241
-1.07013 -0.029995 1.72733 47 53 66 0.411433 0.778959 -0.47323
-1.05204 -0.135525 1.72711 52 67 74 -0.07823 0.544767 -0.83493
-1.06712 -0.03301 1.72641 65 78 82 0.441388 -0.009223 -0.897269
-1.01888 -0.042056 1.72582 35 58 79 0.33682 0.613435 -0.714318
-1.06712 -0.029995 1.7274 45 61 71 -0.197848 0.518028 -0.832168
-1.02189 -0.039041 1.72661 51 64 72 0.003838 0.379975 -0.924989
-1.01888 -0.039041 1.72834 35 59 81 0.336592 0.697574 -0.632532
-1.03697 -0.03301 1.72687 65 85 92 0.873372 -0.04237 -0.485207
-1.03395 -0.03301 1.72782 88 100 98 0.393988 -0.035578 -0.918427
-1.06109 -0.024726 1.73155 70 84 87 0.292886 0.051984 -0.954733
-1.06194 -0.023965 1.73155 70 53 67 0.259783 0.314933 -0.912869
-1.02491 -0.034233 1.73155 70 53 67 0.331698 0.187727 -0.924519
-1.05807 -0.025006 1.73155 33 54 79 0.057798 0.912671 -0.404586
-1.0273 -0.03301 1.73155 33 54 79 -0.055132 0.910358 -0.410132
-1.02189 -0.035542 1.73155 83 98 101 0.768976 -0.336931 -0.543281
-1.05506 -0.025076 1.73155 83 98 101 0.901212 -0.34367 -0.264021
-1.02792 -0.032665 1.73155 89 99 96 0.739225 -0.608304 -0.288984
-1.05204 -0.025418 1.73155 83 98 101 0.84943 -0.394323 -0.350682
-1.03094 -0.131527 1.73155 89 99 96 0.790988 -0.598786 -0.125671
-1.02792 -0.128637 1.73155 83 102 104 0.831165 -0.373788 -0.41164
-1.07013 -0.130488 1.73155 38 53 65 -0.139155 0.511212 -0.848114
-1.01285 -0.119532 1.73155 76 95 99 0.857811 -0.350853 -0.375582
-1.05204 -0.138363 1.73155 38 53 65 -0.173428 0.432842 -0.88463
-1.01117 -0.117434 1.73155 38 53 65 -0.28955 0.421302 -0.859456
-1.00983 -0.116128 1.73155 55 69 73 -0.303709 0.456343 -0.836368
-1.0069 -0.114419 1.73155 68 85 94 0.915641 -0.229271 -0.330207
-1.00079 -0.087631 1.73155 33 54 79 -0.118992 0.902937 -0.412971
-1.00121 -0.087283 1.73155 61 80 89 0.926619 0.001275 -0.376001
-1.00682 -0.114378 1.73155 42 51 60 0.797644 0.361106 -0.48308
-1.0038 -0.086437 1.73155 51 70 81 0.912399 0.153712 -0.379343
-1.0038 -0.11045 1.73155 42 51 60 0.789304 0.30651 -0.532026
-1.00259 -0.108389 1.73155 45 64 77 0.908921 0.197341 -0.367314
-1.01285 -0.103204 1.73155 45 62 74 0.872654 0.300022 -0.385308
-1.00983 -0.102528 1.73155 45 62 74 0.836973 0.330096 -0.436478
-1.00931 -0.102358 1.73155 46 58 68 0.832469 0.327657 -0.446806
-1.00682 -0.101329 1.73155 45 56 66 0.82475 0.339046 -0.452587
-1.0038 -0.100398 1.73155 43 46 56 0.828357 0.358166 -0.430746
-1.00079 -0.106087 1.73155 43 46 56 0.788149 0.378763 -0.485139
-1.00032 -0.105374 1.73155 41 47 57 0.821454 0.447922 -0.352956
-0.999022 -0.102358 1.73155 41 54 68 0.482871 0.764409 -0.427218
-1.00079 -0.099367 1.73155 41 54 68 0.510854 0.735696 -0.444724
-1.04903 -0.025534 1.73155 36 58 79 0.385869 0.730688 -0.563205
-1.04601 -0.025215 1.73155 36 58 79 0.345856 0.77697 -0.526023
-1.043 -0.025395 1.73155 31 50 73 0.403116 0.788423 -0.464636
-1.02091 -0.036026 1.73155 36 55 77 0.375916 0.84698 -0.375916
-1.03998 -0.026217 1.73155 37 57 76 0.43244 0.720733 -0.541793
-1.00983 -0.04213 1.73155 37 57 76 0.407325 0.727249 -0.552445
-1.00994 -0.042056 1.73155 80 87 84 -0.366964 0.38258 -0.847921
-1.0038 -0.046179 1.73155 83 92 88 -0.431274 0.069825 -0.899515
-0.991742 -0.063762 1.73155 80 87 84 -0.351426 -0.237686 -0.905541
-1.00493 -0.045071 1.73155 68 52 65 0.389589 0.421392 -0.818932
-0.99211 -0.063162 1.73155 68 52 65 0.526067 0.069108 -0.847631
-1.00682 -0.043678 1.73155 74 81 80 0.20652 -0.84869 -0.486904
-0.993698 -0.060147 1.73155 74 81 80 0.117199 -0.846434 -0.519436
-1.01285 -0.040172 1.73155 74 81 80 -0.127561 -0.825479 -0.54983
-1.01514 -0.039041 1.73155 69 79 79 -0.230385 -0.678618 -0.697425
-0.994757 -0.057979 1.73155 48 50 69 0.120407 0.891014 -0.437716
-1.01586 -0.038642 1.73155 35 55 75 0.360404 0.777374 -0.515556
-1.00119 -0.048086 1.73155 35 55 75 0.419692 0.735696 -0.53161
-0.991418 -0.084268 1.73155 30 55 77 0.402584 0.741084 -0.537327
-0.988857 -0.078237 1.73155 40 56 73 0.448782 0.730306 -0.515023
-0.995348 -0.057131 1.73155 57 63 73 0.532461 0.748723 -0.394841
-0.988727 -0.077186 1.73155 57 63 73 0.429415 0.789152 -0.439138
-0.996386 -0.054116 1.73155 55 61 73 0.540974 0.775343 -0.325869
-0.988641 -0.075222 1.73155 51 56 68 0.339875 0.87331 -0.349019
-1.00079 -0.048328 1.73155 51 56 68 0.489219 0.804741 -0.336238
-0.988727 -0.072524 1.73155 48 55 67 0.42363 0.81369 -0.398053
-0.997772 -0.050665 1.73155 41 50 62 0.354844 0.788364 -0.502562
-0.98875 -0.072207 1.73155 41 50 62 0.453871 0.837556 -0.30414
-0.997513 -0.051101 1.73155 41 50 62 0.475217 0.783378 -0.400609
-0.989479 -0.069192 1.73155 79 90 93 0.533852 -0.658474 -0.530484
-0.990534 -0.066177 1.73155 30 45 58 -0.257591 0.750648 -0.60842
-1.01888 -0.037078 1.73155 35 51 64 -0.416514 0.53834 -0.732603
-1.03395 -0.030067 1.73155 35 51 65 -0.391652 0.539136 -0.745614
-1.03411 -0.029995 1.73155 83 98 101 0.772748 -0.41159 -0.483171
-1.03094 -0.031047 1.73155 33 54 79 0.003934 0.89832 -0.439324
-1.03697 -0.028248 1.73155 34 53 77 0.077793 0.852891 -0.516261
-1.03849 -0.02698 1.73155 76 95 99 0.870129 -0.31655 -0.377719
-1.01586 -0.087956 1.73155 31 53 78 0.049583 0.794746 -0.604914
-1.01285 -0.087303 1.73155 54 72 83 0.906238 0.164122 -0.389611
-1.01265 -0.087283 1.73155 40 55 66 -0.175474 0.624077 -0.761404
-1.06411 -0.02698 1.72904 42 53 66 0.795483 0.340921 -0.500978
-1.01586 -0.120449 1.72954 40 55 66 -0.124573 0.546654 -0.828041
-1.06109 -0.02698 1.72902 42 53 66 0.72976 0.388659 -0.562489
-1.06411 -0.023965 1.73047 45 62 74 0.863483 0.2595 -0.4325
-1.00079 -0.087283 1.73139 39 55 66 -0.161491 0.508178 -0.845976
-1.03998 -0.029995 1.72872 34 50 63 -0.061006 0.583104 -0.810103
-1.04903 -0.02698 1.7286 41 48 57 0.738238 0.236675 -0.631656
-1.0038 -0.084268 1.72928 40 48 58 0.7327 0.293401 -0.614057
-1.00079 -0.084268 1.7298 79 90 93 0.578292 -0.681618 -0.448302
-1.02491 -0.036026 1.72889 40 47 58 0.318717 0.645524 -0.694059
-1.04601 -0.02698 1.72865 40 47 58 0.492213 0.55941 -0.666924
-1.043 -0.02698 1.72933 42 54 68 0.408882 0.773781 -0.483817
-1.03998 -0.02698 1.73071 68 52 65 0.187317 0.790385 -0.58327
-1.02792 -0.03301 1.73111 36 58 79 0.355014 0.649495 -0.672399
-1.01285 -0.117434 1.72955 36 58 79 0.357521 0.729735 -0.582808
-0.994757 -0.060147 1.72892 30 45 58 -0.348027 0.700955 -0.622527
-0.997772 -0.084268 1.72923 36 55 77 0.392142 0.666807 -0.633714
-1.00983 -0.114419 1.72964 40 66 87 0.38469 0.678574 -0.625741
-1.0038 -0.048086 1.73032 33 55 75 0.410302 0.723384 -0.555309
-0.997772 -0.054116 1.73025 53 60 72 0.448121 0.777286 -0.441603
-1.00682 -0.111404 1.72895 52 58 69 0.506419 0.73736 -0.447035
-1.02189 -0.036026 1.73077 34 50 63 -0.139846 0.537302 -0.831715
-1.0038 -0.108389 1.73031 38 53 65 -0.247451 0.444805 -0.860765
-1.01285 -0.042056 1.72856 51 63 72 -0.230573 0.346584 -0.909239
-1.00079 -0.051101 1.72941 56 68 73 -0.129161 0.286284 -0.949399
-1.00682 -0.045071 1.73025 55 69 73 -0.291929 0.411146 -0.86356
-0.997772 -0.051101 1.73132 54 67 73 -0.229025 0.254009 -0.939695
-1.01285 -0.105374 1.72901 74 87 89 0.030508 0.250168 -0.967722
-1.00983 -0.105374 1.72885 77 89 91 0.535167 0.020531 -0.844497
-1.01586 -0.039041 1.73087 78 89 91 0.065574 0.120794 -0.990509
-1.00682 -0.105374 1.72904 77 89 91 0.360569 -0.084446 -0.928902
-1.07013 -0.129494 1.73113 83 92 88 -0.40402 0.146014 -0.903021
-1.0038 -0.105374 1.72892 80 87 84 -0.405057 -0.146389 -0.902496
-1.03697 -0.029995 1.73033 74 81 80 0.029868 -0.92851 -0.370105
-1.00682 -0.102358 1.73095 69 79 79 -0.072949 -0.813878 -0.576438
-1.07013 -0.126479 1.72939 69 79 79 -0.208092 -0.520988 -0.82781
-1.0038 -0.102358 1.73025 87 95 92 -0.158272 -0.019357 -0.987206
-1.03094 -0.03301 1.72939 81 85 81 -0.375955 -0.15348 -0.913839
-0.988727 -0.075222 1.73143 41 48 57 0.808134 0.575556 -0.125121
-1.00079 -0.105374 1.73108 41 48 57 0.88352 0.448204 -0.136036
-1.00079 -0.102358 1.73015 89 99 96 0.752462 -0.554189 -0.355916
-1.00585 -0.114419 1.73457 88 98 96 0.78372 -0.549395 -0.289739
-1.05204 -0.024272 1.73457 89 99 96 0.808076 -0.546413 -0.220104
-1.05204 -0.140666 1.73457 43 46 55 0.96612 0.208786 -0.151726
-1.04903 -0.139391 1.73457 43 46 55 0.824111 0.483207 -0.295554
-1.04903 -0.024294 1.73457 83 98 101 0.870311 -0.306361 -0.385619
-1.0038 -0.112015 1.73457 37 50 70 0.370995 0.855307 -0.361681
-0.991742 -0.08857 1.73457 83 98 101 0.774521 -0.467974 -0.425579
-0.991411 -0.087283 1.73457 37 50 70 0.367451 0.891106 -0.26629
-1.00332 -0.111404 1.73457 81 97 101 0.785466 -0.455084 -0.419455
-1.00079 -0.108723 1.73457 36 55 77 0.33723 0.863863 -0.374187
-0.9901 -0.084268 1.73457 37 57 76 0.415719 0.787763 -0.454541
-1.0005 -0.108389 1.73457 77 91 96 0.888467 -0.24177 -0.390095
-0.988747 -0.081252 1.73457 37 57 76 0.491147 0.790666 -0.365542
-1.01586 -0.099151 1.73457 38 53 72 0.369558 0.849827 -0.375795
-0.988727 -0.081201 1.73457 65 83 91 0.948136 -0.129717 -0.290191
-1.01285 -0.098855 1.73457 55 74 85 0.964023 -0.08787 -0.250875
-1.00983 -0.096742 1.73457 54 72 84 0.943659 0.159319 -0.290042
-1.00926 -0.096328 1.73457 33 55 75 0.407689 0.781269 -0.47266
-0.987677 -0.078237 1.73457 46 65 77 0.929244 0.165787 -0.330181
-1.04695 -0.023965 1.73457 33 55 75 0.366446 0.82014 -0.439417
-0.98675 -0.075222 1.73457 46 62 73 0.869956 0.197111 -0.452022
-0.991742 -0.059468 1.73457 39 54 72 0.556448 0.70262 -0.443498
-0.987544 -0.072207 1.73457 39 54 72 0.574175 0.694003 -0.434376
-0.992771 -0.057131 1.73457 42 61 79 0.450353 0.782021 -0.430843
-0.997115 -0.102358 1.73457 44 62 82 0.382832 0.833408 -0.398586
-0.988012 -0.069192 1.73457 49 55 65 0.431952 0.814493 -0.387322
-0.988727 -0.066858 1.73457 49 55 65 0.611251 0.71826 -0.332378
-0.9893 -0.066177 1.73457 45 53 67 0.454657 0.759949 -0.464505
-0.990216 -0.063162 1.73457 45 53 67 0.452614 0.752163 -0.478948
-0.991417 -0.060147 1.73457 48 55 67 0.412864 0.785251 -0.461436
-1.01586 -0.037133 1.73457 46 58 68 0.831192 0.238142 -0.502403
-1.0176 -0.036026 1.73457 57 60 69 0.532376 0.745326 -0.401329
-1.02792 -0.030289 1.73457 47 60 69 0.78169 0.41766 -0.463164
-1.02871 -0.029995 1.73457 57 60 69 0.441748 0.788027 -0.428803
-1.03697 -0.025583 1.73457 47 60 69 0.833954 0.414613 -0.364165
-1.03395 -0.026928 1.73457 42 49 57 0.877034 0.44657 -0.177164
-1.03094 -0.029061 1.73457 41 50 62 0.552742 0.756982 -0.348503
-1.03387 -0.02698 1.73457 41 50 62 0.233238 0.868249 -0.437886
-1.00682 -0.094773 1.73457 41 50 62 0.338746 0.778634 -0.528187
-1.00576 -0.093313 1.73457 35 51 64 -0.361982 0.464038 -0.808479
-1.00595 -0.090298 1.73457 51 51 70 0.216087 0.874781 -0.433665
-1.01586 -0.089183 1.73457 33 54 79 0.17352 0.55979 -0.810263
-1.01285 -0.08841 1.73457 33 54 79 0.018199 0.712567 -0.701368
-1.00983 -0.088296 1.73457 38 54 65 -0.319791 0.403214 -0.85741
-1.00682 -0.089541 1.73457 38 54 65 -0.154397 0.434332 -0.887422
-0.994151 -0.093313 1.73457 41 48 56 0.841806 0.420122 -0.338909
-1.043 -0.023818 1.73457 38 53 65 -0.272747 0.463825 -0.842897
-0.992451 -0.090298 1.73457 81 97 101 0.799624 -0.387745 -0.458537
-1.02189 -0.03393 1.73457 42 45 54 0.911812 0.360417 -0.196722
-1.02337 -0.03301 1.73457 43 54 68 0.49454 0.754132 -0.432106
-1.02491 -0.031974 1.73457 42 56 66 0.836758 0.306967 -0.453439
-1.01888 -0.035044 1.73457 36 58 79 0.393299 0.781743 -0.483936
-1.00682 -0.042081 1.73457 45 58 68 0.80783 0.30511 -0.504301
-1.00686 -0.042056 1.73457 37 57 76 0.419207 0.747996 -0.514556
-1.0038 -0.044238 1.73457 48 52 71 0.349686 0.301661 -0.886973
-1.01285 -0.039228 1.73457 34 53 72 0.391525 0.69219 -0.606285
-1.01314 -0.039041 1.73457 33 55 75 0.405138 0.776109 -0.483237
-1.00983 -0.040352 1.73457 40 56 73 0.323953 0.75589 -0.568932
-1.00079 -0.045881 1.73457 52 58 69 0.546136 0.768457 -0.333481
-1.05506 -0.140925 1.73457 48 55 67 0.452614 0.752163 -0.478948
-1.00238 -0.045071 1.73457 57 49 67 0.160054 0.560938 -0.812238
-0.997772 -0.046757 1.73457 48 55 67 0.387053 0.829398 -0.402851
-1.02792 -0.130543 1.73457 41 50 62 0.393232 0.867558 -0.304487
-1.01888 -0.101301 1.73457 35 51 64 -0.375895 0.525602 -0.763181
-1.0164 -0.099343 1.73457 68 81 83 -0.122655 0.198525 -0.972391
-1.00682 -0.115539 1.73457 68 81 83 -0.313424 0.182483 -0.931915
-1.00682 -0.114419 1.73166 68 81 83 0.092671 -0.419096 -0.9032
-0.991742 -0.087283 1.7338 68 81 83 -0.176475 -0.430249 -0.885292
-1.04601 -0.023965 1.73426 85 94 92 -0.437862 0.070003 -0.896313
-1.05204 -0.13854 1.73175 79 85 82 -0.491636 -0.031323 -0.870237
-1.0038 -0.111404 1.7332 90 98 97 0.820208 -0.510111 -0.258932
-1.04903 -0.13854 1.73191 90 98 97 0.807122 -0.455505 -0.375592
-1.043 -0.023965 1.73428 91 95 94 0.618705 -0.6814 -0.391021
-0.988727 -0.078237 1.73179 91 95 94 0.605677 -0.694796 -0.387832
-1.00079 -0.108389 1.73404 49 56 68 0.469534 0.767288 -0.436814
-1.03998 -0.023965 1.73438 49 56 68 0.477014 0.798236 -0.367799
-0.988727 -0.072207 1.7316 43 50 63 0.447131 0.795796 -0.40839
-1.01586 -0.102358 1.73219 36 48 67 0.300035 0.882014 -0.36336
-0.991742 -0.063162 1.73197 36 48 67 0.29615 0.911793 -0.284479
-1.01285 -0.102358 1.73224 34 45 64 0.38224 0.838412 -0.388532
-0.991742 -0.060147 1.73405 88 99 98 0.82813 -0.308396 -0.468073
-0.988727 -0.069192 1.73314 85 96 96 0.86794 -0.371974 -0.329113
-1.00983 -0.102358 1.73168 34 45 64 0.49138 0.798692 -0.347327
-1.01586 -0.099343 1.73442 85 96 96 0.876674 -0.369206 -0.308431
-0.994757 -0.054116 1.73299 34 45 64 0.411863 0.862003 -0.2955
-1.02792 -0.129494 1.73314 78 91 95 0.96827 -0.171478 -0.181792
-1.00079 -0.048086 1.73177 43 52 68 0.543171 0.751957 -0.373532
-0.997772 -0.048086 1.7331 42 52 69 0.482026 0.791554 -0.375625
-1.01888 -0.036026 1.73321 42 52 69 0.449144 0.796868 -0.404068
-1.03395 -0.029995 1.73161 36 45 62 0.38758 0.851431 -0.353336
-1.03094 -0.029995 1.7332 60 79 87 0.948558 -0.016247 -0.316186
-1.03697 -0.02698 1.73263 58 77 88 0.927064 -0.210889 -0.309965
-1.03395 -0.02698 1.73451 37 45 62 0.394862 0.861936 -0.318041
-1.02491 -0.03301 1.73322 58 77 87 0.952344 -0.023777 -0.304099
-1.00983 -0.042056 1.73167 50 47 64 0.345901 0.910342 -0.227224
-1.0038 -0.045071 1.73287 56 76 86 0.931759 0.132718 -0.337951
-1.05506 -0.13854 1.73177 50 47 64 0.272653 0.939752 -0.20622
-1.01285 -0.099343 1.73429 54 59 69 0.438139 0.773666 -0.457684
-1.00983 -0.099343 1.73331 50 68 80 0.933273 0.167795 -0.317563
-1.00682 -0.099343 1.73239 50 68 80 0.949081 0.063272 -0.308613
-1.0038 -0.099343 1.73193 48 67 78 0.912932 0.088966 -0.398296
-1.00682 -0.096328 1.73368 45 61 73 0.821852 0.295867 -0.486849
-1.0038 -0.096328 1.73265 45 51 60 0.572926 0.660293 -0.485559
-1.00079 -0.099343 1.73156 45 51 60 0.553228 0.690281 -0.466316
-0.997772 -0.099343 1.73251 50 63 74 0.762288 0.473766 -0.440979
-1.00079 -0.096328 1.73237 47 53 62 0.423187 0.763044 -0.488544
-0.997772 -0.096328 1.73269 38 46 58 0.318631 0.803711 -0.502517
-1.0038 -0.093313 1.73349 38 46 58 0.351778 0.785477 -0.509194
-1.0038 -0.090298 1.73375 38 46 58 0.384135 0.817681 -0.428764
-1.00983 -0.087283 1.73206 37 43 55 0.709167 0.601072 -0.368505
-1.00682 -0.087283 1.73198 91 98 95 0.775047 -0.537559 -0.332163
-1.0038 -0.087283 1.73238 88 98 98 0.827288 -0.40969 -0.384381
-1.00079 -0.093313 1.73239 86 99 99 0.941209 -0.214225 -0.261216
-1.00079 -0.090298 1.73234 86 97 98 0.921828 -0.353904 -0.158068
-0.994757 -0.093313 1.73398 49 56 68 0.454813 0.753644 -0.474516
-0.994757 -0.090298 1.73262 90 98 97 0.842257 -0.374859 -0.387407
-1.00201 -0.111404 1.73758 88 99 98 0.74673 -0.418497 -0.516967
-1.00079 -0.109647 1.73758 36 48 67 0.323141 0.90155 -0.287729
-1.00003 -0.108389 1.73758 85 97 97 0.739075 -0.464609 -0.487757
-0.990631 -0.087283 1.73758 40 46 63 0.409113 0.829283 -0.38068
-0.997822 -0.105374 1.73758 58 77 88 0.943716 -0.102203 -0.314572
-1.03697 -0.024269 1.73758 41 48 59 0.497536 0.750408 -0.435138
-0.988941 -0.084268 1.73758 59 77 88 0.939932 0.145547 -0.308777
-0.996296 -0.102358 1.73758 48 53 62 0.442258 0.785696 -0.432538
-1.03777 -0.023965 1.73758 38 46 58 0.533225 0.728025 -0.430872
-0.988727 -0.084157 1.73758 53 63 72 0.748628 0.505118 -0.429433
-1.03395 -0.025588 1.73758 37 51 60 -0.092526 -0.237019 -0.967089
-1.02792 -0.02852 1.73758 37 51 60 -0.305291 -0.041803 -0.951341
-1.05506 -0.142991 1.73758 91 93 91 0.619148 -0.769792 -0.155164
-0.986818 -0.081252 1.73758 91 93 91 0.636327 -0.736388 -0.229828
-1.03035 -0.02698 1.73758 39 46 59 0.411901 0.822212 -0.392817
-1.03094 -0.026642 1.73758 39 46 59 0.510947 0.770476 -0.381183
-0.986959 -0.078237 1.73758 34 45 64 0.435651 0.866779 -0.242698
-0.993715 -0.096328 1.73758 34 45 64 0.328413 0.90934 -0.255433
-0.986083 -0.075222 1.73758 40 47 60 0.368274 0.814667 -0.447987
-0.98648 -0.072207 1.73758 37 48 67 0.42269 0.850025 -0.314308
-1.02189 -0.031262 1.73758 43 50 63 0.539136 0.745614 -0.391652
-0.986921 -0.069192 1.73758 50 49 67 0.306501 0.883268 -0.354817
-1.02486 -0.029995 1.73758 50 49 67 0.221368 0.895734 -0.385561
-0.98771 -0.066177 1.73758 43 47 60 0.396869 0.785639 -0.474623
-1.01586 -0.035411 1.73758 42 52 69 0.503023 0.766744 -0.398837
-1.01875 -0.03301 1.73758 42 52 69 0.388588 0.826344 -0.407621
-1.01888 -0.032925 1.73758 90 95 94 0.767083 -0.640872 -0.029449
-1.02491 -0.029975 1.73758 90 95 94 0.804111 -0.592874 -0.043656
-1.0038 -0.043278 1.73758 44 46 64 0.285214 0.802066 -0.524731
-0.992408 -0.093313 1.73758 37 45 62 0.397545 0.864161 -0.308519
-1.00536 -0.042056 1.73758 37 45 62 0.370874 0.879501 -0.298213
-1.01285 -0.037288 1.73758 91 96 94 0.824556 -0.517459 -0.228787
-1.015 -0.036026 1.73758 91 95 94 0.618078 -0.738834 -0.268522
-1.00983 -0.038898 1.73758 89 98 96 0.905177 -0.3135 -0.287007
-0.98848 -0.063162 1.73758 85 89 88 0.651389 -0.690181 -0.315188
-1.00682 -0.040613 1.73758 37 45 62 0.359054 0.824083 -0.43814
-0.988727 -0.062656 1.73758 79 91 92 0.926404 -0.274648 -0.257572
-1.00957 -0.039041 1.73758 71 83 88 0.966661 -0.200579 -0.159169
-0.989896 -0.060147 1.73758 51 56 66 0.505644 0.746113 -0.433174
-0.997772 -0.045417 1.73758 63 80 87 0.962333 -0.188254 -0.196153
-0.999658 -0.045071 1.73758 63 80 90 0.938434 -0.232866 -0.255176
-1.00079 -0.044826 1.73758 48 52 61 0.536015 0.779222 -0.324809
-1.01888 -0.096792 1.73758 38 46 58 0.535544 0.794627 -0.285939
-1.00983 -0.11951 1.73758 38 46 58 0.437759 0.842803 -0.31313
-1.00725 -0.117434 1.73758 37 43 58 0.919685 0.191897 -0.342572
-1.00682 -0.117042 1.73758 37 43 56 0.603619 0.73561 -0.307443
-1.043 -0.021936 1.73758 39 43 55 0.467169 0.787236 -0.402509
-1.05204 -0.023965 1.73489 39 43 55 0.529223 0.789862 -0.309905
-1.04903 -0.023965 1.73503 55 77 87 0.961375 -0.109982 -0.252312
-1.01586 -0.096328 1.73653 56 76 87 0.92675 0.008973 -0.375571
-1.01285 -0.096328 1.73575 56 75 87 0.866018 0.042546 -0.4982
-1.00983 -0.096328 1.73476 47 66 80 0.896392 0.152973 -0.416029
-0.988727 -0.081252 1.73459 46 60 74 0.896763 0.292972 -0.331639
-1.01586 -0.036026 1.73668 46 60 74 0.702767 0.566534 -0.4303
-0.988727 -0.066177 1.7352 90 100 98 0.753357 -0.612396 -0.239633
-1.02792 -0.029995 1.73502 45 64 78 0.919229 0.218728 -0.327377
-0.988727 -0.063162 1.73722 87 96 94 0.752138 -0.644046 -0.139618
-1.03094 -0.02698 1.737 91 98 95 0.874983 -0.470926 -0.112396
-1.05204 -0.02095 1.73652 85 94 94 0.924559 -0.367923 -0.099108
-1.02189 -0.03301 1.73558 61 45 61 0.715443 0.439889 -0.542807
-1.02491 -0.029995 1.73755 90 98 97 0.759415 -0.566752 -0.3195
-1.01888 -0.03301 1.73743 91 93 91 0.622527 -0.700955 -0.348027
-1.00682 -0.042056 1.73462 85 89 88 0.658458 -0.677968 -0.32679
-1.01285 -0.039041 1.73492 39 46 59 0.503258 0.78624 -0.358551
-1.04903 -0.02095 1.73755 40 47 60 0.40698 0.8027 -0.435935
-1.05506 -0.141555 1.73549 91 98 95 0.830352 -0.406477 -0.381171
-1.00983 -0.039041 1.73728 44 46 64 0.275898 0.924902 -0.261603
-1.00079 -0.045071 1.73701 63 80 87 0.957826 -0.179343 -0.224511
-1.01888 -0.099343 1.736 34 45 64 0.42531 0.858296 -0.287122
-1.01285 -0.093313 1.73749 49 69 82 0.87598 0.059318 -0.478685
-1.00983 -0.093313 1.73655 49 68 79 0.892607 0.058778 -0.446987
-1.01285 -0.090298 1.7364 44 62 76 0.869938 0.28087 -0.405364
-1.00983 -0.090298 1.73699 48 53 62 0.496968 0.694416 -0.520394
-1.00682 -0.093313 1.73513 38 46 58 0.340685 0.836799 -0.428604
-1.00682 -0.090298 1.73492 37 43 56 0.70539 0.586448 -0.398124
-0.992703 -0.096328 1.74059 52 71 84 0.940459 -0.206375 -0.270088
-1.02388 -0.13251 1.74059 36 49 65 0.74371 -0.02381 -0.668078
-0.991742 -0.09488 1.74059 52 71 84 0.950157 -0.104109 -0.293876
-1.02189 -0.131237 1.74059 54 71 84 0.994321 0.001075 -0.106419
-1.01976 -0.129494 1.74059 49 67 81 0.924582 0.166453 -0.342697
-1.01888 -0.128614 1.74059 49 67 81 0.902661 0.245113 -0.353726
-1.01646 -0.126479 1.74059 47 65 80 0.902546 0.229659 -0.364236
-1.01586 -0.03359 1.74059 42 58 75 0.897366 0.274401 -0.345597
-1.01285 -0.035414 1.74059 43 43 58 0.389157 0.833457 -0.392308
-1.0118 -0.036026 1.74059 41 53 67 0.84319 0.377011 -0.383268
-1.03395 -0.02429 1.74059 41 53 67 0.464894 0.619299 -0.632726
-1.03497 -0.023965 1.74059 43 43 58 0.408303 0.752654 -0.516527
-0.990962 -0.093313 1.74059 40 46 63 0.536448 0.784774 -0.310408
-0.989676 -0.090298 1.74059 40 46 63 0.563511 0.754039 -0.337461
-1.02792 -0.027149 1.74059 46 42 56 0.327484 0.81792 -0.473033
-0.988727 -0.08772 1.74059 46 42 56 0.271495 0.928199 -0.254437
-0.988517 -0.087283 1.74059 45 54 70 0.494569 0.803079 -0.332363
-1.02828 -0.02698 1.74059 36 50 66 0.799835 0.001367 -0.600218
-0.986887 -0.084268 1.74059 45 54 70 0.425633 0.817789 -0.387374
-1.03094 -0.025319 1.74059 43 49 60 0.6001 0.757606 -0.256736
-1.00314 -0.114419 1.74059 43 49 60 0.628305 0.741118 -0.236594
-0.985947 -0.081252 1.74059 91 92 87 0.605084 -0.721882 -0.335797
-1.01676 -0.03301 1.74059 87 93 93 0.664593 -0.651465 -0.365936
-1.01888 -0.031628 1.74059 35 42 57 0.698557 0.606512 -0.379686
-1.02178 -0.029995 1.74059 35 42 56 0.535398 0.819113 -0.205922
-1.02491 -0.028462 1.74059 35 42 56 0.468404 0.867795 -0.165924
-0.985861 -0.078237 1.74059 92 96 95 0.704008 -0.595192 -0.387452
-0.985712 -0.077741 1.74059 39 43 55 0.543982 0.816731 -0.192439
-1.02189 -0.029932 1.74059 39 43 55 0.560782 0.788844 -0.251493
-0.985137 -0.075222 1.74059 39 43 55 0.543135 0.827282 -0.143553
-1.03998 -0.022424 1.74059 35 49 69 0.377833 0.862077 -0.337737
-0.985504 -0.072207 1.74059 35 49 69 0.349723 0.879606 -0.322472
-1.03697 -0.023389 1.74059 35 49 69 0.474289 0.828049 -0.298974
-1.00983 -0.037266 1.74059 39 44 55 0.500636 0.830286 -0.244927
-0.985712 -0.071385 1.74059 90 95 94 0.80376 -0.594084 -0.03215
-0.98612 -0.069192 1.74059 93 96 92 0.856545 -0.516071 -0.00134
-0.986107 -0.066177 1.74059 90 95 94 0.765765 -0.64257 -0.026599
-1.00079 -0.111938 1.74059 90 94 93 0.73972 -0.67183 -0.038188
-0.986329 -0.063162 1.74059 82 92 92 0.889219 -0.399632 -0.222673
-1.0038 -0.04153 1.74059 82 92 93 0.910803 -0.329749 -0.248401
-1.00048 -0.111404 1.74059 79 90 95 0.849761 -0.363292 -0.382002
-1.00662 -0.039041 1.74059 71 84 90 0.884212 -0.148571 -0.442827
-0.988313 -0.060147 1.74059 90 95 91 0.847639 -0.523918 0.08377
-0.998847 -0.108389 1.74059 74 88 95 0.941031 -0.174469 -0.289865
-1.00682 -0.038929 1.74059 63 81 90 0.969491 -0.195947 -0.147281
-1.00079 -0.04265 1.74059 55 76 90 0.971456 -0.148965 -0.184615
-1.00273 -0.042056 1.74059 90 95 91 0.912611 -0.399694 0.085941
-0.997772 -0.043912 1.74059 90 95 91 0.971535 -0.222669 0.080858
-0.997772 -0.106632 1.74059 85 91 90 0.902151 -0.421372 -0.092564
-0.996713 -0.105374 1.74059 41 43 61 0.472118 0.626691 -0.61997
-0.994957 -0.102358 1.74059 41 43 61 0.478315 0.622649 -0.619292
-0.994757 -0.101418 1.74059 52 71 84 0.867668 0.001333 -0.497143
-0.994251 -0.099343 1.74059 36 49 65 0.743362 0.001379 -0.668888
-1.02491 -0.13251 1.73952 50 66 79 0.721717 0.486122 -0.492758
-1.01285 -0.036026 1.73948 43 43 58 0.456588 0.792171 -0.404959
-0.991742 -0.093313 1.73903 66 45 59 0.420446 0.426889 -0.800619
-1.02189 -0.129494 1.73796 93 96 92 0.846017 -0.532372 -0.028888
-0.988727 -0.087283 1.74035 40 46 63 0.513845 0.746963 -0.421911
-1.03697 -0.023965 1.73851 46 42 56 0.32981 0.853171 -0.404134
-0.988727 -0.084268 1.73773 46 42 56 0.230077 0.839554 -0.492152
-1.02189 -0.029995 1.74045 42 48 59 0.476799 0.758618 -0.444029
-0.985712 -0.075222 1.73867 35 42 56 0.503441 0.848911 -0.160924
-1.0038 -0.042056 1.7401 35 49 69 0.467169 0.787236 -0.402509
-0.985712 -0.072207 1.73998 79 90 95 0.948803 -0.230054 -0.216442
-1.00682 -0.039041 1.7404 65 82 89 0.93984 -0.242942 -0.240166
-0.997772 -0.045071 1.73823 52 72 86 0.988294 -0.142509 -0.054455
-0.988727 -0.060147 1.74005 52 72 86 0.993794 -0.050192 -0.099268
-1.00079 -0.111404 1.73981 46 42 56 0.435096 0.756903 -0.487636
-0.997772 -0.105374 1.73782 46 42 56 0.516978 0.374364 -0.769795
-1.02189 -0.093313 1.7386 64 76 86 0.981869 0.024518 -0.187968
-1.01888 -0.093313 1.73772 39 47 64 0.53657 0.780029 -0.321942
-1.02161 -0.13251 1.74361 49 64 79 0.943185 0.144793 -0.299059
-1.01888 -0.130159 1.74361 49 64 79 0.896444 0.274119 -0.348205
-1.01285 -0.034086 1.74361 39 47 64 0.46359 0.856207 -0.22802
-1.01477 -0.03301 1.74361 38 47 65 0.49024 0.722896 -0.486916
-1.03094 -0.024521 1.74361 49 64 79 0.893386 0.314699 -0.320665
-1.0323 -0.023965 1.74361 40 47 58 0.638246 0.740738 -0.209643
-1.00983 -0.03545 1.74361 40 47 58 0.622628 0.76031 -0.185106
-1.02792 -0.026169 1.74361 35 42 56 0.543805 0.834976 -0.084211
-1.01586 -0.032085 1.74361 35 42 56 0.482047 0.874314 -0.05663
-1.03998 -0.022002 1.74361 40 56 71 0.891443 0.356876 -0.279229
-1.03697 -0.022713 1.74361 35 42 56 0.559512 0.824165 0.087738
-1.00858 -0.036026 1.74361 39 43 55 0.549962 0.822719 -0.143791
-1.01888 -0.030081 1.74361 39 43 55 0.591198 0.795673 -0.131871
-1.01905 -0.029995 1.74361 38 52 68 0.794901 0.358107 -0.489787
-0.991742 -0.096624 1.74361 39 43 55 0.550613 0.829514 -0.093446
-0.991431 -0.096328 1.74361 35 49 69 0.41512 0.8849 -0.211253
-1.03395 -0.023408 1.74361 35 47 62 0.715557 0.318205 -0.621872
-1.02491 -0.027416 1.74361 35 47 62 0.788027 0.428803 -0.441748
-1.02597 -0.02698 1.74361 35 49 69 0.400952 0.87849 -0.259793
-0.989307 -0.093313 1.74361 35 49 69 0.492086 0.796635 -0.351032
-1.01812 -0.129494 1.74361 35 49 69 0.453955 0.776117 -0.437684
-0.988322 -0.090298 1.74361 39 44 55 0.487253 0.853811 -0.183279
-0.9871 -0.087283 1.74361 90 95 94 0.835548 -0.526855 -0.15583
-1.01586 -0.12735 1.74361 90 95 94 0.774066 -0.594123 -0.218724
-1.02189 -0.028796 1.74361 85 93 93 0.774485 -0.632147 -0.023723
-0.986197 -0.084268 1.74361 78 89 90 0.844165 -0.51416 -0.151743
-0.985739 -0.081252 1.74361 85 94 94 0.817877 -0.550754 -0.166577
-1.00682 -0.036997 1.74361 74 86 91 0.900325 -0.338546 -0.273498
-0.985712 -0.081176 1.74361 71 84 90 0.929939 -0.349918 -0.113009
-0.98474 -0.078237 1.74361 91 92 87 0.569789 -0.802541 -0.176831
-1.0038 -0.039032 1.74361 91 91 86 0.615801 -0.748096 -0.247266
-0.997772 -0.042518 1.74361 91 92 87 0.683041 -0.689351 -0.241352
-0.998719 -0.042056 1.74361 92 94 92 0.706162 -0.671715 -0.223905
-0.994589 -0.045071 1.74361 86 89 88 0.771618 -0.602201 -0.204841
-0.984273 -0.075222 1.74361 68 82 90 0.955562 -0.258439 -0.14181
-0.984302 -0.072207 1.74361 67 82 89 0.974881 -0.03486 -0.219979
-1.00165 -0.114419 1.74361 68 85 93 0.994914 -0.06781 -0.07448
-0.984335 -0.069192 1.74361 55 76 90 0.977608 -0.209234 -0.02246
-1.00079 -0.113619 1.74361 52 73 87 0.969909 -0.241567 -0.030348
-0.984732 -0.066177 1.74361 89 93 88 0.800114 -0.577943 0.160623
-0.999096 -0.111404 1.74361 88 95 94 0.873261 -0.471762 0.121884
-0.985712 -0.061463 1.74361 90 95 91 0.856965 -0.502657 0.113782
-0.998088 -0.108389 1.74361 90 95 91 0.829962 -0.557437 0.020646
-0.986415 -0.060147 1.74361 90 95 91 0.919441 -0.379561 -0.102769
-0.997772 -0.107871 1.74361 84 90 89 0.879697 -0.430239 -0.202552
-0.985265 -0.063162 1.74361 32 44 59 0.500579 0.092175 -0.86077
-0.995441 -0.105374 1.74361 54 71 84 0.978119 -0.187769 -0.089589
-0.994757 -0.104591 1.74361 43 43 58 0.38094 0.684372 -0.621707
-0.993916 -0.099343 1.74361 54 71 84 0.938217 0.169458 -0.301717
-1.02189 -0.13251 1.74309 40 46 63 0.593678 0.787039 -0.16768
-0.991742 -0.096328 1.74253 46 42 56 0.265885 0.663916 -0.698943
-1.01888 -0.129494 1.74213 35 50 68 0.540555 0.215916 -0.81313
-1.01586 -0.126479 1.7417 74 86 91 0.852284 -0.352402 -0.386555
-1.01586 -0.03301 1.74197 91 91 86 0.655278 -0.700138 -0.28358
-1.00983 -0.036026 1.74267 92 94 92 0.70874 -0.641241 -0.294103
-0.994757 -0.102358 1.74089 89 93 88 0.855209 -0.5148 0.05999
-1.03395 -0.023965 1.74169 49 42 55 0.413658 0.67614 -0.609689
-0.985712 -0.078237 1.74099 49 42 55 0.409577 0.638409 -0.651675
-1.02792 -0.02698 1.74109 49 43 55 0.682131 0.659448 -0.315952
-0.985712 -0.069192 1.74147 49 43 55 0.502939 0.829004 -0.244549
-0.985712 -0.066177 1.74148 90 93 91 0.825535 -0.516151 -0.228209
-0.985712 -0.063162 1.74216 90 93 91 0.776143 -0.594066 -0.211395
-1.0038 -0.039041 1.74359 82 88 88 0.840096 -0.541149 -0.037368
-1.00079 -0.042056 1.74177 83 89 88 0.889594 -0.453652 -0.05313
-0.983113 -0.072207 1.74662 82 88 88 0.858893 -0.51211 -0.006721
-0.991742 -0.048864 1.74662 80 86 90 0.866412 -0.497257 -0.045456
-0.982697 -0.071218 1.74662 74 83 88 0.950298 -0.285754 -0.123605
-0.982602 -0.069192 1.74662 68 80 88 0.98309 -0.181796 -0.022001
-0.982697 -0.068372 1.74662 66 80 88 0.995499 -0.033875 0.088513
-0.983386 -0.066177 1.74662 66 80 88 0.989946 -0.121289 -0.072773
-0.984303 -0.063162 1.74662 58 78 88 0.98502 -0.168628 -0.036052
-0.984901 -0.060147 1.74662 61 78 88 0.949905 -0.312517 0.003706
-0.985712 -0.057949 1.74662 61 78 88 0.981609 -0.182486 -0.056058
-0.986603 -0.057131 1.74662 50 69 83 0.979162 -0.142356 -0.144832
-1.01586 -0.03066 1.74662 50 69 83 0.966358 -0.010858 -0.256972
-1.01655 -0.029995 1.74662 75 84 94 0.936949 0.213006 -0.277047
-1.01888 -0.02829 1.74662 50 63 78 0.900302 0.294187 -0.320797
-0.991322 -0.048086 1.74662 90 88 87 0.746831 -0.639484 -0.182491
-1.02129 -0.02698 1.74662 50 63 78 0.88592 0.367259 -0.283314
-1.0038 -0.037777 1.74662 92 86 81 0.759466 -0.617163 -0.205721
-1.00571 -0.036026 1.74662 91 93 92 0.781025 -0.594557 -0.191053
-1.01321 -0.126479 1.74662 42 55 71 0.882248 0.396937 -0.253141
-1.01285 -0.126177 1.74662 36 45 60 0.86694 0.406807 -0.287964
-1.01026 -0.123464 1.74662 92 86 81 0.780579 -0.581943 -0.228121
-1.00983 -0.122914 1.74662 32 41 56 0.893997 0.401059 -0.1998
-1.00983 -0.033843 1.74662 32 41 56 0.88232 0.447637 -0.145374
-1.01202 -0.03301 1.74662 91 90 85 0.907745 -0.41906 -0.019705
-1.01285 -0.032643 1.74662 90 92 88 0.746739 -0.654696 -0.117281
-1.0018 -0.114419 1.74662 90 92 89 0.834389 -0.514515 -0.197658
-1.00079 -0.113347 1.74662 87 90 87 0.844583 -0.458576 -0.276381
-0.991742 -0.096545 1.74662 40 45 60 0.431219 0.657651 -0.617693
-0.999491 -0.111404 1.74662 44 43 56 0.554333 0.821942 0.130864
-0.997772 -0.108527 1.74662 44 43 56 0.515128 0.853843 0.074799
-0.991516 -0.096328 1.74662 44 43 56 0.548847 0.835081 0.037516
-0.988753 -0.093313 1.74662 42 44 57 0.631743 0.77462 -0.029416
-0.987709 -0.090298 1.74662 42 44 57 0.632595 0.76358 -0.129496
-0.986555 -0.087283 1.74662 42 44 57 0.748025 0.608858 -0.264102
-0.997668 -0.108389 1.74662 35 40 55 0.549247 0.708545 -0.443048
-0.985712 -0.084877 1.74662 49 42 55 0.439367 0.721224 -0.53553
-0.985476 -0.084268 1.74662 49 43 55 0.608282 0.73347 -0.303339
-0.995579 -0.105374 1.74662 82 88 88 0.798978 -0.553855 -0.234263
-0.984972 -0.081252 1.74662 53 67 81 0.900302 0.294187 -0.320797
-0.984151 -0.078237 1.74662 37 45 59 0.893342 0.379486 -0.240686
-0.983576 -0.075222 1.74662 44 43 56 0.646551 0.762057 -0.035215
-0.994757 -0.103314 1.74662 42 44 57 0.623879 0.765876 -0.155592
-0.994442 -0.102358 1.74662 40 42 56 0.451885 0.859942 -0.237277
-0.993669 -0.099343 1.74662 44 43 57 0.675437 0.700511 -0.230369
-1.03094 -0.023401 1.74662 44 43 57 0.569029 0.789199 -0.231023
-1.03378 -0.02095 1.74662 90 93 89 0.822839 -0.561483 -0.087597
-0.982697 -0.069192 1.74636 90 93 89 0.913529 -0.392694 -0.106096
-0.991742 -0.048086 1.74629 90 92 87 0.899604 -0.435808 -0.027988
-0.985712 -0.060147 1.74485 95 88 85 0.731808 -0.658474 -0.175695
-0.997772 -0.108389 1.74548 82 88 88 0.878495 -0.458658 0.133715
-1.01888 -0.029995 1.74372 82 88 88 0.869307 -0.479766 0.118867
-1.00682 -0.036026 1.74503 92 86 81 0.782308 -0.584802 -0.214479
-1.01285 -0.03301 1.74587 78 86 89 0.818885 -0.57252 -0.040594
-0.985712 -0.084268 1.7459 90 88 85 0.785278 -0.585501 -0.201314
-0.985712 -0.081252 1.74385 80 86 90 0.818288 -0.569803 -0.075688
-0.982654 -0.072207 1.74964 92 92 90 0.792269 -0.578554 -0.193869
-0.982349 -0.069192 1.74964 83 87 88 0.945709 -0.323699 -0.029196
-0.982339 -0.066177 1.74964 76 84 87 0.99621 -0.081125 -0.031368
-1.01888 -0.027667 1.74964 68 80 87 0.977164 -0.133193 -0.165558
-0.982697 -0.063658 1.74964 65 80 89 0.965692 -0.206655 -0.157266
-0.982824 -0.063162 1.74964 66 82 91 0.977089 -0.074596 -0.199331
-1.01984 -0.02698 1.74964 56 75 86 0.935438 -0.262259 -0.237015
-1.01586 -0.02989 1.74964 90 92 88 0.819179 -0.527164 -0.225928
-0.984053 -0.060147 1.74964 87 88 83 0.752712 -0.637144 -0.165749
-1.0038 -0.037241 1.74964 90 92 88 0.805496 -0.586471 -0.085017
-1.00507 -0.036026 1.74964 61 78 88 0.93589 -0.256006 -0.242016
-0.984939 -0.057131 1.74964 44 43 56 0.59411 0.747842 0.296254
-0.987757 -0.051101 1.74964 44 43 56 0.662314 0.70951 0.240698
-1.00983 -0.03311 1.74964 44 43 56 0.6543 0.756234 0.001377
-0.988727 -0.049012 1.74964 44 43 56 0.577706 0.796051 -0.180438
-0.989228 -0.048086 1.74964 52 71 85 0.956222 -0.185895 -0.226016
-1.01003 -0.03301 1.74964 49 67 82 0.971032 -0.088959 -0.221771
-1.01285 -0.031587 1.74964 42 44 57 0.641206 0.74782 -0.172105
-1.01567 -0.029995 1.74964 48 67 81 0.961087 0.204346 -0.185889
-0.991742 -0.096815 1.74964 42 44 57 0.727552 0.670312 -0.146113
-0.991328 -0.096328 1.74964 41 57 73 0.916476 0.349202 -0.195268
-0.989004 -0.093313 1.74964 42 44 57 0.799337 0.570955 -0.187273
-0.988727 -0.092843 1.74964 39 49 65 0.936929 0.247148 -0.247148
-0.986536 -0.090298 1.74964 39 49 65 0.862474 0.385884 -0.327463
-0.985712 -0.088465 1.74964 36 44 60 0.837498 0.43049 -0.336565
-0.985368 -0.087283 1.74964 90 93 89 0.862116 -0.418042 -0.286351
-1.0156 -0.129494 1.74964 53 67 81 0.924888 0.329006 -0.190626
-1.01285 -0.127317 1.74964 44 43 56 0.753044 0.630348 0.188644
-1.01192 -0.126479 1.74964 44 43 56 0.853175 0.521609 0.004043
-1.00983 -0.124387 1.74964 39 49 63 0.961571 0.251686 -0.109709
-1.00905 -0.123464 1.74964 39 49 63 0.980004 0.16108 -0.116814
-0.983826 -0.084268 1.74964 44 43 56 0.926425 0.357159 -0.119053
-0.983479 -0.081252 1.74964 44 43 56 0.557425 0.786676 -0.265366
-0.983804 -0.078237 1.74964 41 45 58 0.602501 0.713531 -0.357582
-0.983407 -0.075222 1.74964 41 45 58 0.700955 0.598698 -0.387587
-1.00204 -0.114419 1.74964 44 44 56 0.745998 0.609786 -0.267672
-0.982697 -0.072395 1.74964 44 44 56 0.659036 0.726946 -0.192926
-1.00079 -0.11286 1.74964 37 45 59 0.751422 0.659751 0.009723
-0.99966 -0.111404 1.74964 37 45 59 0.448377 0.883861 0.133224
-0.997906 -0.108389 1.74964 37 45 59 0.551555 0.808235 0.20626
-0.997772 -0.108156 1.74964 37 45 59 0.526629 0.812469 0.25011
-0.996052 -0.105374 1.74964 85 79 77 0.821108 -0.540877 -0.182301
-0.994757 -0.103185 1.74964 91 86 83 0.824559 -0.531046 -0.195171
-0.994355 -0.102358 1.74964 94 91 83 0.835006 -0.53876 -0.111818
-0.993104 -0.099343 1.74964 91 90 85 0.81029 -0.570314 0.134802
-0.991742 -0.051101 1.74714 92 91 86 0.899597 -0.403169 0.167867
-0.982697 -0.072207 1.74922 89 88 85 0.691358 -0.720105 0.058931
-0.982697 -0.066177 1.74845 89 88 85 0.731655 -0.680904 -0.032424
-1.01586 -0.029995 1.74922 81 86 87 0.902805 -0.429593 -0.019827
-0.988727 -0.051101 1.74885 85 85 84 0.957807 -0.283189 0.049086
-0.985712 -0.087283 1.74895 75 82 83 0.978409 -0.206411 -0.010495
-1.01285 -0.126479 1.74735 71 82 87 0.972198 -0.201014 -0.120102
-1.00983 -0.123464 1.74751 73 83 90 0.943874 -0.170744 -0.282752
-0.997772 -0.108389 1.7494 66 79 86 0.935173 -0.270597 -0.228536
-1.01285 -0.128222 1.75266 66 79 86 0.925879 -0.281045 -0.252512
-0.991742 -0.098518 1.75266 64 77 85 0.94264 -0.179747 -0.281283
-0.990112 -0.096328 1.75266 58 72 82 0.964803 -0.133389 -0.226632
-0.988727 -0.094577 1.75266 52 70 82 0.999365 0.03551 0.003044
-0.987949 -0.093313 1.75266 47 64 77 0.97674 0.211607 0.03467
-0.986539 -0.090298 1.75266 39 50 63 0.863209 0.355439 -0.358516
-0.985712 -0.089197 1.75266 92 91 86 0.853382 -0.51975 0.039981
-0.98472 -0.087283 1.75266 91 86 83 0.826433 -0.502039 -0.254881
-0.984224 -0.084268 1.75266 66 79 86 0.910805 -0.200003 -0.361156
-0.984099 -0.081252 1.75266 44 43 56 0.881475 0.432671 -0.189202
-0.983699 -0.078237 1.75266 40 48 60 0.969784 0.183681 0.16056
-0.98361 -0.075222 1.75266 44 43 56 0.872257 0.379044 -0.30902
-0.982697 -0.072629 1.75266 40 48 60 0.977227 0.188545 0.097353
-0.982501 -0.072207 1.75266 44 43 56 0.792607 0.295843 -0.533151
-0.981986 -0.069192 1.75266 39 46 58 0.969168 0.160884 0.186626
-0.981778 -0.066177 1.75266 37 45 59 0.543102 0.834101 0.096519
-0.98197 -0.063162 1.75266 37 45 59 0.402173 0.90664 0.127518
-0.982697 -0.060258 1.75266 37 45 59 0.58016 0.802728 0.137992
-1.00983 -0.125181 1.75266 37 45 59 0.597781 0.801222 0.026475
-0.982739 -0.060147 1.75266 48 43 55 0.552445 0.407325 -0.727249
-1.00847 -0.123464 1.75266 48 43 55 0.528414 0.222087 -0.819424
-1.00682 -0.121327 1.75266 40 43 58 0.674325 0.300952 -0.674325
-0.984318 -0.057131 1.75266 40 43 58 0.622361 0.406609 -0.668831
-0.985581 -0.054116 1.75266 89 88 85 0.835738 -0.54639 -0.054779
-1.00616 -0.120449 1.75266 87 88 85 0.688302 -0.722788 -0.061789
-1.00367 -0.117434 1.75266 89 87 82 0.730381 -0.682717 0.021028
-1.00079 -0.111509 1.75266 81 86 87 0.927347 -0.36311 0.09044
-1.0007 -0.111404 1.75266 85 85 84 0.963724 -0.24701 0.101108
-0.998025 -0.108389 1.75266 88 85 84 0.963208 -0.1874 0.192642
-0.997772 -0.107742 1.75266 73 82 87 0.913393 -0.318017 0.254124
-0.99663 -0.105374 1.75266 73 82 87 0.936631 -0.332875 0.109161
-0.994757 -0.103574 1.75266 73 79 84 0.933538 -0.354823 -0.051063
-0.993825 -0.102358 1.75266 74 83 86 0.956849 -0.290141 -0.01605
-0.992227 -0.099343 1.75266 94 88 80 0.912587 -0.334085 -0.235739
-1.01696 -0.02698 1.75266 94 88 80 0.912092 -0.377564 -0.159793
-0.988727 -0.093313 1.75038 66 79 86 0.987696 -0.156189 0.007866
-0.982697 -0.063162 1.75003 91 90 85 0.914443 -0.387147 -0.117948
-0.985712 -0.054116 1.75203 61 71 79 0.996201 0.068741 0.053465
-1.01028 -0.126479 1.75567 55 71 82 0.978664 0.132386 0.157131
-0.991742 -0.100407 1.75567 46 59 71 0.974853 0.106098 0.195969
-0.991147 -0.099343 1.75567 44 43 56 0.649902 0.743828 0.156037
-0.989984 -0.096328 1.75567 37 45 58 0.810759 0.561063 -0.166965
-1.00983 -0.126056 1.75567 91 90 85 0.859072 -0.44999 0.243934
-0.988727 -0.093756 1.75567 44 43 56 0.818649 0.530974 -0.218816
-1.00742 -0.123464 1.75567 44 44 56 0.67337 0.49873 -0.545749
-0.988417 -0.093313 1.75567 44 44 56 0.574175 0.434376 -0.694003
-1.00682 -0.122623 1.75567 73 82 87 0.982439 -0.142435 -0.120522
-0.986681 -0.090298 1.75567 91 84 80 0.951164 -0.294377 0.092892
-1.0052 -0.120449 1.75567 92 84 78 0.961234 -0.214926 0.172732
-0.985712 -0.089079 1.75567 90 84 78 0.974213 -0.129476 0.184786
-1.0038 -0.118436 1.75567 81 81 80 0.947743 -0.281761 0.149644
-1.00315 -0.117434 1.75567 79 78 78 0.872663 -0.488099 -0.014791
-1.00141 -0.114419 1.75567 36 41 55 0.606764 -0.015204 -0.794737
-0.984585 -0.087283 1.75567 36 41 55 0.76959 0.116694 -0.627785
-0.984019 -0.084268 1.75567 78 76 76 0.911128 -0.411772 0.016994
-0.984374 -0.081252 1.75567 79 81 80 0.945632 -0.325178 0.006229
-0.983223 -0.078237 1.75567 69 73 76 0.988597 -0.148687 -0.023835
-0.999513 -0.111404 1.75567 66 69 74 0.998366 0.056902 0.005173
-0.997772 -0.10876 1.75567 58 68 77 0.976423 0.210696 0.046955
-0.983151 -0.075222 1.75567 52 64 76 0.980673 0.155488 0.118758
-0.997549 -0.108389 1.75567 50 59 69 0.985536 0.156603 0.06476
-0.982697 -0.07282 1.75567 43 46 58 0.955552 0.292567 0.036414
-0.995702 -0.105374 1.75567 43 46 58 0.982547 0.186011 0.001141
-0.994757 -0.104171 1.75567 40 44 55 0.838997 0.543206 -0.031791
-0.993276 -0.102358 1.75567 79 78 78 0.877075 -0.415299 0.241383
-0.982464 -0.072207 1.75567 43 46 58 0.8718 0.216087 0.439626
-0.981303 -0.069192 1.75567 40 44 55 0.898814 0.072728 0.432254
-0.980871 -0.066177 1.75567 43 41 53 0.531083 0.169049 -0.830285
-0.980751 -0.063162 1.75567 92 84 78 0.978223 -0.122743 -0.167376
-0.982294 -0.060147 1.75567 88 81 77 0.873198 -0.401035 -0.276941
-0.982697 -0.058477 1.75567 84 78 75 0.834653 -0.467841 -0.290652
-0.983071 -0.057131 1.75567 78 76 76 0.889908 -0.440002 -0.120258
-0.984715 -0.054116 1.75567 83 80 77 0.927524 -0.271297 -0.257093
