ply
format ascii 1.0
element vertex 718
property float x
property float y
property float z
property uchar red
property uchar green
property uchar blue
property float nx
property float ny
property float nz
end_header
-0.512336 0.391309 1.9215 197 72 100 0.107293 0.499271 -0.859777
-0.548146 0.340865 1.9215 206 81 108 -0.30956 -0.001233 -0.950879
-0.509321 0.389605 1.9215 202 79 105 -0.191199 0.302847 -0.933663
-0.548518 0.342883 1.9215 205 77 105 -0.174367 0.258172 -0.950233
-0.54895 0.343881 1.9215 205 77 105 -0.297397 0.271284 -0.915402
-0.476155 0.302126 1.9215 205 77 105 -0.286237 0.386192 -0.876883
-0.551375 0.346896 1.9215 210 94 113 -0.039145 -0.299268 -0.953366
-0.47314 0.303932 1.9215 211 97 114 0.088243 -0.21253 -0.973162
-0.549608 0.349911 1.9215 206 77 106 -0.358674 0.380411 -0.852432
-0.471886 0.304684 1.9215 206 80 106 -0.337342 0.380473 -0.86107
-0.542663 0.361971 1.9215 213 104 118 0.169154 -0.136576 -0.976081
-0.542488 0.362177 1.9215 207 82 109 -0.423598 0.262661 -0.866934
-0.548518 0.352213 1.9215 213 105 118 -0.025714 -0.126333 -0.991655
-0.539844 0.364987 1.9215 201 73 101 -0.59473 0.225159 -0.771751
-0.470125 0.305733 1.9215 213 105 118 -0.081508 -0.142935 -0.98637
-0.539473 0.365882 1.9215 211 97 114 0.069101 -0.195181 -0.97833
-0.545503 0.351817 1.9215 215 112 121 0.044485 -0.435412 -0.899132
-0.46711 0.306772 1.9215 201 74 102 -0.414783 0.125138 -0.901274
-0.542441 0.355941 1.9215 218 117 124 0.204994 -0.778362 -0.593405
-0.465606 0.307699 1.9215 201 73 102 -0.020534 0.543477 -0.839173
-0.455049 0.370891 1.9215 201 73 102 -0.040857 0.618487 -0.784732
-0.541991 0.358956 1.9215 220 119 126 0.149394 -0.74999 -0.644357
-0.464094 0.308888 1.9215 199 69 100 -0.237958 0.558346 -0.794749
-0.455325 0.371017 1.9215 199 69 100 -0.2825 0.630438 -0.723009
-0.542488 0.361679 1.9215 197 67 98 -0.21559 0.755342 -0.618853
-0.461079 0.310626 1.9215 220 118 125 0.202723 -0.660783 -0.722682
-0.533192 0.377047 1.9215 198 67 98 -0.158837 0.766955 -0.621733
-0.458064 0.372607 1.9215 224 118 126 0.179093 -0.543298 -0.820215
-0.46025 0.374032 1.9215 194 67 97 -0.091937 0.628965 -0.771978
-0.419213 0.32579 1.9215 219 122 127 0.29987 -0.413667 -0.859627
-0.53067 0.380062 1.9215 202 70 102 0.093634 0.445808 -0.890218
-0.530427 0.380397 1.9215 229 116 128 0.087662 -0.564775 -0.820576
-0.452034 0.369792 1.9215 219 116 124 0.234984 -0.580457 -0.779649
-0.449019 0.368542 1.9215 202 70 102 0.435424 0.170383 -0.883954
-0.491231 0.385369 1.9215 221 116 124 0.275784 -0.543689 -0.792682
-0.446004 0.367283 1.9215 202 70 102 -0.209036 0.13722 -0.968233
-0.494144 0.386092 1.9215 218 109 122 0.186435 -0.55021 -0.813948
-0.447736 0.368002 1.9215 223 123 128 0.352172 -0.653566 -0.669946
-0.50374 0.286593 1.9215 198 67 99 0.438998 -0.096162 -0.893327
-0.4852 0.382957 1.9215 198 67 99 -0.157843 0.135471 -0.978127
-0.442989 0.366904 1.9215 223 123 128 0.290141 -0.658827 -0.694093
-0.503291 0.287386 1.9215 228 121 128 0.243092 -0.475482 -0.845472
-0.485492 0.383077 1.9215 198 67 99 0.375307 0.147593 -0.915074
-0.439973 0.366422 1.9215 228 121 128 0.191069 -0.516036 -0.834985
-0.436958 0.365249 1.9215 197 67 99 -0.061146 0.326543 -0.943202
-0.500373 0.289608 1.9215 225 119 127 0.369537 -0.645458 -0.668451
-0.418868 0.325973 1.9215 224 125 129 0.311205 -0.711095 -0.630472
-0.47314 0.378893 1.9215 199 66 99 0.164582 0.281557 -0.945325
-0.474328 0.380062 1.9215 199 66 99 0.070255 0.282299 -0.956751
-0.461079 0.374391 1.9215 224 135 133 0.344153 -0.654054 -0.673626
-0.415852 0.327596 1.9215 204 82 106 -0.355943 0.024415 -0.934189
-0.500276 0.289661 1.9215 197 67 99 -0.025203 0.433758 -0.900677
-0.482185 0.382288 1.9215 204 82 106 -0.269662 0.077959 -0.959794
-0.413758 0.328805 1.9215 222 136 133 0.405263 -0.60376 -0.686466
-0.497261 0.291314 1.9215 195 69 99 0.160423 0.42924 -0.888829
-0.412837 0.329326 1.9215 224 135 133 0.437904 -0.571106 -0.694319
-0.494246 0.292609 1.9215 221 134 131 0.428712 -0.54127 -0.723348
-0.47917 0.381652 1.9215 219 126 126 0.4384 -0.581755 -0.685104
-0.433943 0.36429 1.9215 220 126 126 0.39949 -0.500585 -0.767999
-0.415852 0.361812 1.9215 209 99 117 -0.085936 -0.061383 -0.994408
-0.43642 0.364987 1.9215 207 91 113 -0.102437 -0.086323 -0.990987
-0.415985 0.361971 1.9215 208 77 108 -0.184406 -0.051158 -0.981518
-0.430928 0.364758 1.9215 208 77 108 -0.172098 0.098865 -0.980106
-0.494214 0.292623 1.9215 208 77 108 -0.205578 0.049291 -0.977399
-0.470125 0.376505 1.9215 188 82 97 -0.403911 0.183859 -0.896132
-0.491231 0.293994 1.9215 204 75 105 0.029664 -0.019435 -0.999371
-0.424898 0.366546 1.9215 208 77 108 -0.099686 0.054884 -0.993504
-0.471318 0.377047 1.9215 204 75 105 -0.014236 0.114987 -0.993265
-0.421883 0.366339 1.9215 202 73 102 -0.376714 0.197739 -0.904979
-0.488433 0.295639 1.9215 208 77 108 -0.021028 0.118421 -0.992741
-0.46711 0.375752 1.9215 204 75 105 0.05737 -0.05304 -0.996943
-0.528803 0.383077 1.9215 208 93 113 -0.10341 -0.159373 -0.981787
-0.488215 0.29578 1.9215 202 73 102 -0.33723 0.374187 -0.863863
-0.418868 0.365384 1.9215 204 75 105 0.092647 0.003195 -0.995694
-0.464094 0.37525 1.9215 208 77 108 -0.073107 0.046919 -0.99622
-0.418303 0.364987 1.9215 208 84 111 -0.103495 -0.041176 -0.993777
-0.566609 0.288653 1.9215 201 73 101 -0.245797 0.12615 -0.961078
-0.405231 0.33785 1.9215 208 77 108 -0.185733 0.113434 -0.976031
-0.503291 0.388873 1.9215 201 73 101 -0.391373 0.501801 -0.771377
-0.503902 0.389108 1.9215 204 77 105 -0.053496 0.119513 -0.99139
-0.403792 0.339585 1.9215 208 86 112 -0.183591 -0.046194 -0.981917
-0.563594 0.300982 1.9215 204 77 105 -0.123381 0.09048 -0.988226
-0.506306 0.389667 1.9215 208 77 108 -0.113882 0.157966 -0.980856
-0.401303 0.343881 1.9215 202 75 103 -0.050192 -0.099268 -0.993794
-0.400777 0.346313 1.9215 208 90 112 -0.228306 -0.008281 -0.973554
-0.500276 0.387765 1.9215 204 76 105 0.232615 -0.13645 -0.962949
-0.400708 0.346896 1.9215 202 75 103 -0.224619 0.221896 -0.948846
-0.497261 0.386915 1.9215 206 81 108 -0.151972 -0.047564 -0.98724
-0.494246 0.386117 1.9215 204 76 105 0.092433 0.118174 -0.988681
-0.563594 0.262166 1.9215 208 77 108 -0.113292 0.120447 -0.986234
-0.563463 0.262472 1.9215 201 73 101 -0.394933 0.354347 -0.847624
-0.566609 0.265487 1.91937 206 81 108 -0.212247 -0.120739 -0.969728
-0.566609 0.268502 1.92117 206 76 107 -0.041927 0.007158 -0.999095
-0.563594 0.307699 1.92101 201 73 101 -0.169532 0.37753 -0.910346
-0.563594 0.265487 1.92 206 76 107 -0.164435 -0.04315 -0.985444
-0.563594 0.268502 1.92013 204 78 107 0.272521 0.418677 -0.866281
-0.560579 0.301669 1.91942 206 81 108 -0.224512 0.005877 -0.974454
-0.560579 0.304684 1.92032 201 74 102 -0.250506 0.320011 -0.913696
-0.563594 0.271518 1.92133 208 77 108 -0.055203 -0.16091 -0.985424
-0.560579 0.307699 1.91909 204 78 107 0.059538 0.369134 -0.927467
-0.563594 0.310714 1.92066 201 73 102 -0.057317 0.521441 -0.85136
-0.560579 0.268502 1.91915 210 94 113 -0.0608 -0.319521 -0.945627
-0.557564 0.268502 1.91944 208 77 108 -0.137341 -0.014516 -0.990417
-0.563594 0.313729 1.92112 211 97 114 0.253153 -0.365665 -0.895658
-0.560579 0.271518 1.9193 204 78 107 0.146785 0.325122 -0.934211
-0.560579 0.313729 1.92046 207 77 107 -0.216421 0.091322 -0.97202
-0.563594 0.277548 1.92071 198 69 99 -0.142193 0.446687 -0.883319
-0.557564 0.313729 1.91951 208 86 110 -0.290214 -0.193013 -0.937295
-0.560579 0.274533 1.91866 199 69 100 -0.201723 0.46471 -0.862179
-0.554548 0.268502 1.91929 206 90 108 0.355083 -0.333747 -0.873229
-0.551533 0.268502 1.9194 209 90 112 0.140882 -0.416953 -0.897943
-0.548518 0.268502 1.91936 196 74 100 0.42663 0.075449 -0.901274
-0.545503 0.268502 1.92089 199 69 100 -0.336643 0.45676 -0.823433
-0.542488 0.268502 1.92081 204 84 106 0.376116 0.150728 -0.914231
-0.554548 0.316744 1.91883 206 77 107 -0.139879 0.147306 -0.97915
-0.542488 0.271518 1.91878 213 105 118 -0.19962 -0.218376 -0.95523
-0.563594 0.280563 1.92035 199 69 100 -0.373156 0.642749 -0.669051
-0.539473 0.271518 1.9192 206 77 107 -0.101365 0.167314 -0.980679
-0.554548 0.31976 1.92079 206 98 111 0.408585 -0.274921 -0.870331
-0.551533 0.322775 1.91867 211 97 114 0.283626 -0.364661 -0.886893
-0.482185 0.298654 1.9195 206 77 107 -0.165612 0.130746 -0.977486
-0.563594 0.286593 1.921 206 98 111 0.398462 -0.032876 -0.916595
-0.551533 0.32579 1.92018 199 69 99 -0.178691 0.618544 -0.765162
-0.566609 0.289608 1.92107 213 105 118 -0.032014 -0.205128 -0.978211
-0.476155 0.301669 1.92058 206 77 107 -0.152916 0.220878 -0.963239
-0.563594 0.289608 1.91873 205 112 114 0.361406 -0.073348 -0.929519
-0.551533 0.328805 1.92078 199 69 99 0.020788 0.600092 -0.799661
-0.536458 0.271518 1.91952 206 77 107 -0.13031 0.191037 -0.972895
-0.551533 0.33182 1.92119 208 81 109 -0.388766 -0.068606 -0.918779
-0.409822 0.355941 1.91872 206 77 107 -0.200952 0.122593 -0.9719
-0.533442 0.271518 1.91922 204 89 107 0.352001 0.02432 -0.935683
-0.527412 0.386092 1.92143 203 103 110 0.245058 -0.008368 -0.969472
-0.406807 0.355941 1.91902 215 106 119 0.173428 -0.432842 -0.88463
-0.548518 0.33182 1.919 209 90 112 0.175734 -0.215373 -0.96059
-0.464094 0.307699 1.91913 209 93 113 0.107754 -0.361455 -0.926142
-0.524397 0.389108 1.92009 215 112 121 -0.069226 -0.146665 -0.986761
-0.548518 0.334835 1.92027 205 77 106 -0.242821 0.123358 -0.962196
-0.403792 0.349911 1.9186 196 74 100 0.241098 0.187222 -0.952271
-0.521382 0.389108 1.91984 215 106 119 0.138245 -0.496225 -0.857117
-0.403792 0.352926 1.91886 218 117 124 0.053674 -0.354774 -0.93341
-0.548518 0.33785 1.92138 211 102 116 -0.099722 -0.083675 -0.991491
-0.400777 0.349911 1.92138 215 106 119 0.165822 -0.369911 -0.914149
-0.518367 0.389108 1.91952 196 74 100 0.097369 0.27393 -0.956808
-0.515352 0.389108 1.91947 205 77 106 -0.198836 0.167646 -0.965588
-0.412837 0.358956 1.92012 215 106 119 0.056506 -0.475478 -0.877911
-0.545503 0.340865 1.91896 205 76 105 -0.211081 0.093675 -0.97297
-0.403792 0.355941 1.92084 220 117 124 0.179827 -0.551572 -0.814513
-0.512336 0.389108 1.91977 206 78 107 -0.121954 0.161374 -0.979329
-0.409822 0.358956 1.92016 212 108 118 -0.130482 -0.162792 -0.977995
-0.548518 0.343881 1.92129 220 117 124 0.177007 -0.564306 -0.806367
-0.545503 0.343881 1.91953 203 78 104 -0.015997 0.284261 -0.958613
-0.548518 0.346896 1.92048 223 123 128 0.250541 -0.543098 -0.80142
-0.545503 0.346896 1.92 205 77 105 -0.267455 0.159935 -0.950204
-0.406807 0.358956 1.91976 220 119 126 0.109313 -0.469904 -0.875923
-0.509321 0.389108 1.92106 203 78 104 0.090566 0.061495 -0.99399
-0.403792 0.340865 1.92018 224 125 129 0.31584 -0.565947 -0.761544
-0.403792 0.343881 1.91886 203 77 104 -0.128947 0.210656 -0.969018
-0.400777 0.346896 1.92143 220 127 128 0.285936 -0.495311 -0.82031
-0.548518 0.349911 1.92045 203 78 104 -0.152322 0.214813 -0.964704
-0.566609 0.292623 1.92002 216 116 122 -0.021858 -0.361305 -0.932192
-0.545503 0.349911 1.92035 205 75 105 -0.181874 0.192342 -0.964327
-0.563594 0.292623 1.91885 201 82 103 0.216988 -0.169645 -0.96132
-0.542488 0.361971 1.92139 224 118 126 0.236081 -0.437577 -0.867636
-0.539473 0.361971 1.91911 199 85 102 0.38041 -0.105746 -0.918752
-0.563594 0.295639 1.91946 207 89 109 -0.020556 -0.247886 -0.968571
-0.566609 0.298654 1.92079 201 82 103 0.252892 0.069199 -0.965017
-0.530427 0.274533 1.91879 222 136 133 0.348485 -0.466237 -0.813131
-0.563594 0.298654 1.92025 207 93 110 -0.148233 -0.20237 -0.968025
-0.539473 0.364987 1.92103 205 76 105 -0.139129 0.114933 -0.983582
-0.521382 0.277548 1.91899 207 84 108 0.049003 -0.280194 -0.958692
-0.530427 0.377047 1.91912 206 77 106 -0.2611 0.295721 -0.918899
-0.503291 0.386092 1.91865 218 133 130 0.317963 -0.388621 -0.864797
-0.497261 0.386092 1.91907 202 119 115 0.196558 0.001149 -0.980491
-0.494246 0.386092 1.92144 207 83 107 -0.128629 -0.237768 -0.962767
-0.494246 0.292623 1.92143 205 80 107 -0.230081 0.192407 -0.953961
-0.461079 0.374032 1.92085 221 134 131 0.376957 -0.402193 -0.834353
-0.452034 0.368002 1.9195 210 102 115 -0.166977 -0.192865 -0.966914
-0.449019 0.368002 1.92037 207 82 109 -0.354818 0.158476 -0.921406
-0.446004 0.364987 1.91859 212 115 121 0.043681 -0.395779 -0.917306
-0.442989 0.364987 1.91905 206 86 108 -0.151965 -0.156988 -0.975839
-0.439973 0.364987 1.91927 202 74 103 0.322216 0.24419 -0.91463
-0.436958 0.364987 1.92091 219 126 126 0.395502 -0.411385 -0.821182
-0.488215 0.383077 1.9188 202 74 103 0.637467 0.052766 -0.768669
-0.47917 0.380062 1.91889 207 74 106 0.05867 0.078596 -0.995179
-0.47314 0.377047 1.91889 202 73 102 0.131978 0.281286 -0.950505
-0.418868 0.364987 1.91947 208 70 106 0.104588 -0.027523 -0.994135
-0.530427 0.380062 1.92133 219 122 127 0.176465 -0.550512 -0.815964
-0.527412 0.380062 1.91949 202 73 103 -0.005828 0.20865 -0.977973
-0.476155 0.380062 1.91971 207 73 107 -0.141031 0.158504 -0.977234
-0.524397 0.380062 1.91875 209 69 107 -0.125177 0.110871 -0.98592
-0.527412 0.383077 1.92044 202 70 102 -0.210549 0.16347 -0.963819
-0.506306 0.389108 1.92077 216 120 124 0.050031 -0.696144 -0.716157
-0.563594 0.262472 1.92142 219 60 110 -0.079566 0.111853 -0.990534
-0.548518 0.355024 1.92452 198 69 99 0.442992 0.360427 -0.820884
-0.550277 0.355941 1.92452 219 116 124 0.23239 -0.60359 -0.762676
-0.545505 0.355941 1.92452 210 82 110 -0.060024 0.060024 -0.996391
-0.548518 0.356133 1.92452 198 69 99 0.528635 0.043012 -0.847759
-0.545503 0.355946 1.92452 210 92 114 -0.009332 0.052883 -0.998557
-0.406807 0.361871 1.92452 221 116 124 0.340216 -0.463643 -0.8181
-0.547947 0.358956 1.92452 198 69 99 0.059128 0.463401 -0.884174
-0.407766 0.361971 1.92452 209 77 109 -0.025471 -0.019358 -0.999488
-0.400777 0.357355 1.92452 198 69 99 0.288687 0.262835 -0.92064
-0.401911 0.358956 1.92452 218 109 122 0.197556 -0.339682 -0.919558
-0.545503 0.361444 1.92452 210 95 114 0.339955 -0.373797 -0.862964
-0.403792 0.36066 1.92452 200 73 102 -0.072036 0.149976 -0.986062
-0.397839 0.349911 1.92452 200 73 102 -0.07127 0.304518 -0.949837
-0.543637 0.358956 1.92452 213 58 104 0.000978 0.000978 -0.999999
-0.398642 0.352926 1.92452 200 71 102 -0.037501 0.137503 -0.989791
-0.544785 0.364987 1.92452 200 72 102 0.031084 0.160024 -0.986624
-0.399949 0.355941 1.92452 204 82 106 -0.230194 0.032541 -0.9726
-0.542488 0.365753 1.92452 198 74 100 0.063481 0.314813 -0.947029
-0.540273 0.368002 1.92452 207 79 108 -0.150518 0.097536 -0.983784
-0.539473 0.369024 1.92452 209 63 105 -0.098854 0.103506 -0.989704
-0.503134 0.280563 1.92452 198 73 100 0.096299 0.310005 -0.945845
-0.503856 0.286593 1.92452 207 83 110 -0.176953 0.091527 -0.979954
-0.503291 0.287207 1.92452 209 76 110 -0.093784 0.068925 -0.993204
-0.500965 0.289608 1.92452 197 67 99 0.001182 0.240031 -0.970765
-0.500276 0.289885 1.92452 212 57 105 0.0075 0.095363 -0.995414
-0.533282 0.380062 1.92452 212 57 105 -0.024146 0.051441 -0.998384
-0.4852 0.384655 1.92452 211 62 106 -0.038613 0.032352 -0.99873
-0.497261 0.291652 1.92452 213 60 107 -0.123218 -0.044087 -0.9914
-0.531795 0.383077 1.92452 208 87 112 -0.270131 0.056539 -0.961162
-0.488096 0.386092 1.92452 207 86 112 -0.093442 -0.038476 -0.994881
-0.494933 0.292623 1.92452 209 76 110 -0.095363 -0.0075 -0.995414
-0.530427 0.385344 1.92452 211 68 108 -0.126333 -0.025714 -0.991655
-0.47917 0.382439 1.92452 205 74 105 0.108354 0.193045 -0.975189
-0.494246 0.292905 1.92452 206 89 110 -0.541377 0.285683 -0.790757
-0.480961 0.383077 1.92452 206 86 110 -0.397265 0.212559 -0.892748
-0.491231 0.294266 1.92452 206 81 109 -0.287626 0.236618 -0.928053
-0.530004 0.386092 1.92452 206 78 108 -0.364928 -0.016646 -0.930887
-0.48875 0.295639 1.92452 206 78 108 -0.411986 -0.172022 -0.894805
-0.482185 0.383509 1.92452 225 126 131 0.122956 -0.499058 -0.857801
-0.488215 0.295946 1.92452 225 126 131 0.446096 -0.834277 -0.324006
-0.4852 0.298105 1.92452 203 80 106 -0.395465 -0.006441 -0.918458
-0.470125 0.378856 1.92452 204 82 106 -0.363277 0.229054 -0.903086
-0.4844 0.298654 1.92452 226 125 131 0.392374 -0.727287 -0.563114
-0.482185 0.299909 1.92452 203 80 106 -0.389324 0.218903 -0.894711
-0.470739 0.380062 1.92452 204 82 106 -0.451931 -0.014578 -0.891934
-0.46711 0.377195 1.92452 217 120 125 0.291076 -0.774611 -0.561474
-0.464094 0.376927 1.92452 204 82 106 -0.509396 0.107619 -0.853776
-0.465283 0.377047 1.92452 221 116 123 0.334766 -0.789664 -0.514162
-0.47917 0.301551 1.92452 194 77 97 -0.534746 0.268157 -0.801335
-0.461079 0.375912 1.92452 194 77 97 -0.672601 0.254797 -0.694757
-0.478878 0.301669 1.92452 201 81 105 -0.393361 0.225409 -0.891324
-0.509321 0.391897 1.92452 211 118 122 0.017723 -0.527585 -0.849317
-0.506306 0.391473 1.92452 221 116 124 0.281979 -0.890697 -0.356577
-0.476155 0.302764 1.92452 201 81 105 -0.311176 0.32011 -0.894818
-0.503291 0.390059 1.92452 188 82 97 -0.679544 0.251859 -0.689048
-0.455049 0.372652 1.92452 211 118 122 0.169516 -0.722351 -0.670428
-0.500276 0.388333 1.92452 201 81 105 -0.273212 0.287667 -0.917934
-0.456702 0.374032 1.92452 225 142 135 0.43049 -0.699754 -0.570108
-0.501644 0.389108 1.92452 186 85 98 -0.673918 0.247787 -0.696014
-0.47314 0.304092 1.92452 217 121 124 0.189993 -0.851229 -0.489195
-0.497261 0.387125 1.92452 202 79 105 -0.185013 0.307428 -0.933412
-0.452034 0.371447 1.92452 185 94 104 -0.70871 0.22685 -0.668034
-0.528747 0.389108 1.92452 204 79 105 -0.001175 0.226747 -0.973953
-0.494246 0.386813 1.92452 229 119 128 0.459357 -0.745838 -0.482407
-0.491231 0.386593 1.92452 217 121 124 0.101747 -0.712229 -0.694534
-0.449019 0.371116 1.92452 204 79 105 -0.071214 0.306866 -0.949085
-0.527412 0.390062 1.92452 229 119 128 0.415076 -0.746481 -0.520076
-0.471937 0.304684 1.92452 193 64 97 0.389905 0.310395 -0.866965
-0.488215 0.386142 1.92452 208 77 108 -0.131688 0.364569 -0.921818
-0.446004 0.370625 1.92452 193 64 97 0.218074 0.589265 -0.777953
-0.470125 0.305806 1.92452 229 119 128 0.474592 -0.739172 -0.477899
-0.467646 0.307699 1.92452 208 77 108 -0.13734 0.475631 -0.868857
-0.524397 0.391268 1.92452 193 64 97 0.281782 0.448079 -0.848425
-0.46711 0.308252 1.92452 208 77 108 -0.359016 0.402913 -0.841884
-0.448257 0.371017 1.92452 193 64 97 0.00136 0.572458 -0.819933
-0.522201 0.392123 1.92452 214 110 120 0.065765 -0.860536 -0.505127
-0.464094 0.310523 1.92452 193 83 100 0.497943 0.248201 -0.830933
-0.442989 0.369803 1.92452 220 118 125 0.097343 -0.800538 -0.591323
-0.463763 0.310714 1.92452 193 83 100 0.501183 0.403232 -0.76565
-0.461079 0.312119 1.92452 225 142 135 0.420498 -0.639889 -0.643213
-0.439973 0.368317 1.92452 193 74 99 0.433016 0.44599 -0.78332
-0.436958 0.368084 1.92452 225 140 134 0.403308 -0.561339 -0.722662
-0.421186 0.32579 1.92452 225 143 135 0.493642 -0.614946 -0.614946
-0.458064 0.375201 1.92452 193 74 99 0.203399 0.334257 -0.920273
-0.418868 0.326538 1.92452 231 142 138 0.631931 -0.381139 -0.67483
-0.521382 0.392425 1.92452 220 118 125 0.152417 -0.762083 -0.629284
-0.415852 0.327808 1.92452 221 133 128 0.614302 -0.285611 -0.735567
-0.433943 0.367526 1.92452 212 131 124 0.617285 -0.155453 -0.771229
-0.435928 0.368002 1.92452 203 119 116 0.402571 -0.503621 -0.764396
-0.413055 0.328805 1.92452 204 120 117 0.379898 -0.430763 -0.818609
-0.430928 0.365539 1.92452 193 67 97 0.181566 0.464987 -0.866499
-0.518367 0.392103 1.92452 198 111 110 0.492813 -0.167231 -0.853914
-0.412837 0.328917 1.92452 193 67 97 0.194818 0.524045 -0.829109
-0.518878 0.392123 1.92452 195 107 108 0.592964 0.085121 -0.800717
-0.424898 0.366357 1.92452 183 92 102 -0.704956 0.136782 -0.695937
-0.421883 0.366185 1.92452 195 70 99 0.198005 0.587875 -0.784345
-0.518169 0.392123 1.92452 194 68 98 0.212135 0.431687 -0.876724
-0.418868 0.366009 1.92452 194 61 95 0.063316 0.53889 -0.839993
-0.509859 0.392123 1.92452 237 116 131 0.238422 -0.851939 -0.466213
-0.415852 0.36454 1.92452 194 61 95 0.427147 0.532697 -0.730602
-0.416542 0.364987 1.92452 232 112 128 0.320271 -0.852509 -0.413103
-0.406132 0.334835 1.92452 240 134 141 0.373806 -0.739451 -0.559893
-0.412837 0.36266 1.92452 239 132 140 0.358221 -0.78873 -0.499582
-0.515352 0.392537 1.92452 197 66 99 -0.03161 0.529116 -0.84796
-0.403792 0.336993 1.92452 239 132 140 0.344496 -0.860467 -0.375392
-0.403124 0.33785 1.92452 198 67 99 -0.131534 0.577865 -0.805463
-0.409822 0.362194 1.92452 195 63 97 -0.095314 0.505023 -0.857827
-0.400777 0.341069 1.92452 197 67 97 -0.1268 0.681738 -0.720524
-0.397845 0.346896 1.92452 195 67 97 -0.110958 0.699775 -0.705693
-0.458064 0.313372 1.92452 233 133 136 0.402509 -0.787236 -0.467169
-0.457077 0.313729 1.92452 195 67 97 -0.251834 0.695314 -0.67314
-0.455049 0.314469 1.92452 231 122 128 0.472381 -0.724317 -0.502216
-0.566609 0.271518 1.9219 232 132 135 0.367402 -0.729906 -0.576414
-0.563594 0.301669 1.9218 228 121 128 0.466911 -0.681121 -0.563975
-0.563594 0.304684 1.92225 232 132 135 0.359197 -0.746024 -0.560737
-0.560579 0.265487 1.92152 227 123 129 0.3799 -0.712107 -0.590407
-0.560579 0.316744 1.92374 232 127 131 0.374806 -0.725062 -0.577758
-0.557564 0.265487 1.92181 228 134 134 0.369641 -0.747423 -0.552018
-0.554548 0.265487 1.92249 224 135 133 0.406185 -0.684711 -0.605132
-0.557564 0.316744 1.92192 224 135 133 0.439427 -0.616534 -0.653292
-0.560579 0.262472 1.92259 231 143 139 0.508502 -0.67968 -0.52864
-0.560579 0.31976 1.92272 230 142 139 0.487748 -0.682177 -0.544736
-0.566609 0.274533 1.92208 225 126 131 -0.037869 -0.369548 -0.92844
-0.551533 0.265487 1.92286 204 82 106 -0.330794 0.219097 -0.917917
-0.557564 0.31976 1.92275 206 99 114 -0.046225 -0.273602 -0.960732
-0.548518 0.265487 1.92271 204 82 106 -0.367907 0.131891 -0.920461
-0.560579 0.322775 1.92156 204 82 106 -0.458187 0.039196 -0.887991
-0.545503 0.265487 1.92198 225 126 131 0.152268 -0.518893 -0.841169
-0.557564 0.322775 1.92254 214 120 123 -0.11071 -0.267006 -0.957314
-0.560579 0.32579 1.92184 204 82 106 -0.237615 0.065935 -0.969119
-0.566609 0.286593 1.92196 214 120 123 -0.028585 -0.284607 -0.958218
-0.400777 0.352926 1.92226 204 82 106 -0.27578 0.091927 -0.956815
-0.400777 0.355941 1.92382 217 120 125 0.210112 -0.407 -0.888934
-0.412837 0.361971 1.92366 212 109 119 -0.122743 -0.167376 -0.978223
-0.46711 0.307699 1.92362 194 77 97 -0.578622 0.20106 -0.790425
-0.409822 0.361971 1.92412 212 109 119 0.014571 -0.142348 -0.989709
-0.554548 0.322775 1.92173 194 77 97 -0.551829 0.169909 -0.816466
-0.403792 0.358956 1.92273 215 114 121 0.118909 -0.305956 -0.944591
-0.557564 0.32579 1.92198 221 116 123 0.224868 -0.509394 -0.830634
-0.461079 0.310714 1.92168 204 82 106 -0.386877 0.094327 -0.917294
-0.554548 0.32579 1.92205 204 82 106 -0.190041 0.213962 -0.958178
-0.557564 0.328805 1.92177 221 116 124 0.190672 -0.572017 -0.797773
-0.554548 0.328805 1.92222 206 99 114 -0.021914 -0.046959 -0.998656
-0.415852 0.361971 1.9217 201 81 105 -0.368427 0.266998 -0.89049
-0.557564 0.33182 1.9222 205 97 113 -0.302287 0.160034 -0.939687
-0.554548 0.33182 1.92237 216 115 122 0.08286 -0.322234 -0.943027
-0.557564 0.334835 1.92239 205 96 113 -0.135438 0.019029 -0.990603
-0.554548 0.334835 1.92241 224 117 125 0.159813 -0.545156 -0.822961
-0.403792 0.33785 1.92343 207 90 111 -0.172665 -0.080899 -0.981653
-0.551533 0.334835 1.92182 206 89 110 -0.362901 0.317348 -0.876124
-0.557564 0.33785 1.92249 206 88 111 -0.240794 0.243578 -0.939515
-0.554548 0.33785 1.92421 206 81 109 -0.239905 0.199243 -0.950131
-0.400777 0.343881 1.92227 207 90 111 -0.2323 0.210565 -0.949578
-0.551533 0.33785 1.92288 207 92 112 0.03956 -0.322863 -0.945619
-0.491231 0.386092 1.92339 204 99 110 0.305907 -0.382003 -0.872063
-0.557564 0.340865 1.92263 206 80 108 -0.379343 0.153712 -0.912399
-0.4852 0.383077 1.92176 206 80 108 -0.508422 -0.017625 -0.860928
-0.554548 0.340865 1.9237 225 142 135 0.409502 -0.531202 -0.741709
-0.488215 0.386092 1.92443 208 95 114 -0.015933 -0.28067 -0.959672
-0.551533 0.340865 1.92329 206 78 108 -0.348259 -0.109763 -0.93095
-0.47314 0.380062 1.92235 225 140 134 0.383135 -0.427649 -0.818733
-0.557564 0.343881 1.9228 206 78 108 -0.379507 -0.150956 -0.912791
-0.527412 0.389108 1.92343 193 64 97 0.12476 0.402315 -0.906961
-0.554548 0.343881 1.92296 225 143 135 0.469239 -0.345169 -0.812818
-0.482185 0.383077 1.92329 193 64 97 0.339889 0.321761 -0.883711
-0.521382 0.392123 1.9242 201 81 105 -0.20097 0.281358 -0.938322
-0.551533 0.343881 1.92238 208 90 112 -0.39462 -0.080009 -0.915355
-0.548518 0.340865 1.92176 203 80 106 -0.325744 0.060996 -0.943489
-0.455049 0.371017 1.92172 213 127 122 0.415784 -0.310679 -0.854753
-0.515352 0.392123 1.923 201 81 105 -0.102881 0.327347 -0.939287
-0.512336 0.392123 1.92278 208 90 112 -0.460352 -0.003957 -0.887728
-0.557564 0.346896 1.92321 215 133 125 0.514253 -0.221266 -0.828604
-0.458064 0.374032 1.92332 202 79 105 -0.119822 0.233202 -0.965018
-0.554548 0.346896 1.92307 208 90 112 -0.344234 -0.106645 -0.932807
-0.452034 0.371017 1.92346 207 128 120 0.407666 -0.16854 -0.897442
-0.470125 0.377047 1.92295 202 79 105 -0.069759 0.338267 -0.938461
-0.449019 0.371017 1.92437 193 64 97 0.072267 0.421332 -0.904023
-0.551533 0.346896 1.92155 202 79 105 -0.122749 0.365489 -0.922687
-0.46711 0.377047 1.92425 198 103 107 0.214043 0.077946 -0.973709
-0.446004 0.368002 1.92205 202 79 105 -0.018996 0.33812 -0.940911
-0.442989 0.368002 1.92248 211 118 122 0.014032 -0.360994 -0.932462
-0.503291 0.389108 1.92205 202 79 105 -0.121034 0.393708 -0.911233
-0.551533 0.349911 1.92246 214 114 122 -0.013401 -0.044328 -0.998927
-0.439973 0.368002 1.92404 198 108 110 0.173179 -0.048302 -0.983705
-0.436958 0.368002 1.92442 211 118 122 0.052245 -0.302001 -0.951875
-0.551533 0.352926 1.92277 197 88 103 0.115515 0.039253 -0.99253
-0.433943 0.364987 1.92256 209 116 120 0.068412 -0.237575 -0.968957
-0.430928 0.364987 1.92242 198 76 101 0.281557 0.164582 -0.945325
-0.551533 0.355941 1.924 205 77 105 -0.218248 0.382301 -0.897894
-0.548518 0.352926 1.92179 229 119 128 0.326834 -0.755098 -0.568336
-0.545503 0.352926 1.92276 194 78 100 0.141414 0.010021 -0.9899
-0.545503 0.355941 1.92451 205 77 105 -0.211569 0.424618 -0.880306
-0.551533 0.358956 1.9241 194 78 100 0.123387 0.282595 -0.951271
-0.548518 0.358956 1.92424 205 77 105 -0.34494 0.505377 -0.790955
-0.548518 0.361971 1.92418 196 74 100 0.425225 0.238907 -0.872988
-0.545503 0.361971 1.92417 220 118 125 0.10785 -0.743131 -0.660397
-0.542488 0.355941 1.92157 208 77 108 -0.279031 0.497267 -0.821503
-0.542488 0.358956 1.92215 195 71 99 0.29615 0.284479 -0.911793
-0.494246 0.292623 1.92345 203 119 116 0.363306 -0.245636 -0.898705
-0.542488 0.364987 1.92395 212 120 123 0.052799 -0.232072 -0.971265
-0.539473 0.368002 1.92318 237 116 131 0.184943 -0.615967 -0.765755
-0.530427 0.383077 1.92315 206 80 106 -0.493797 0.386943 -0.778742
-0.424898 0.324497 1.92452 217 121 124 0.028707 -0.295806 -0.954817
-0.449019 0.316421 1.92452 232 112 128 0.386692 -0.597315 -0.702627
-0.442989 0.318595 1.92452 193 83 101 0.316961 0.008701 -0.948398
-0.439685 0.31976 1.92452 193 83 101 0.342875 0.297957 -0.890875
-0.436958 0.320669 1.92452 218 122 125 -0.023759 -0.306368 -0.951617
-0.430928 0.322564 1.92452 230 116 127 0.283 -0.545447 -0.788922
-0.455049 0.313729 1.92344 193 83 100 0.39395 0.038209 -0.918338
-0.449019 0.313729 1.92098 188 82 97 -0.503269 0.167756 -0.84769
-0.436958 0.31976 1.92325 204 120 117 0.432422 -0.114092 -0.894424
-0.430928 0.31976 1.91857 239 132 140 0.274831 -0.611618 -0.741884
-0.503481 0.283578 1.92753 206 102 115 0.02428 -0.176899 -0.983929
-0.503664 0.286593 1.92753 196 70 99 0.156815 0.4851 -0.860283
-0.400777 0.340259 1.92753 186 85 98 -0.340404 0.216882 -0.914925
-0.400445 0.340865 1.92753 239 132 140 0.264428 -0.619109 -0.739447
-0.503291 0.288105 1.92753 196 70 99 0.257042 0.407359 -0.876349
-0.397762 0.344343 1.92753 208 104 116 0.035777 -0.265245 -0.963517
-0.395368 0.346896 1.92753 185 94 104 -0.34239 0.176126 -0.922902
-0.395154 0.349911 1.92753 195 70 99 0.181417 0.191858 -0.96451
-0.494246 0.29471 1.92753 202 72 102 0.053365 0.064256 -0.996506
-0.491231 0.295591 1.92753 183 92 102 -0.366612 0.213011 -0.905661
-0.491117 0.295639 1.92753 210 107 118 -0.105685 -0.190233 -0.976034
-0.488215 0.297078 1.92753 231 122 128 0.361612 -0.613595 -0.701953
-0.400777 0.361129 1.92753 198 67 99 0.054981 0.050669 -0.997201
-0.402374 0.361971 1.92753 201 73 101 -0.037733 0.239784 -0.970093
-0.4852 0.298393 1.92753 198 67 99 -0.101072 0.290088 -0.951648
-0.396228 0.352926 1.92753 232 127 131 0.340088 -0.70133 -0.626479
-0.483775 0.298654 1.92753 201 73 101 -0.260692 0.174245 -0.949567
-0.396731 0.355941 1.92753 198 67 99 0.304607 0.113064 -0.945744
-0.534278 0.386092 1.92753 195 85 103 -0.1344 0.098719 -0.985998
-0.482185 0.299259 1.92753 204 82 106 -0.304777 0.063013 -0.950337
-0.397762 0.358556 1.92753 198 67 99 0.195462 0.346695 -0.917386
-0.398071 0.358956 1.92753 197 67 99 0.30902 0.379044 -0.872257
-0.533442 0.38865 1.92753 197 67 99 -0.014776 0.484905 -0.874442
-0.538651 0.392123 1.92753 193 68 97 0.226342 0.44219 -0.867892
-0.479422 0.301669 1.92753 199 75 101 -0.268825 -0.001205 -0.963188
-0.47917 0.301804 1.92753 180 84 98 -0.166745 0.272486 -0.947601
-0.539473 0.377107 1.92753 195 76 100 -0.073535 0.462025 -0.883813
-0.542483 0.380062 1.92753 201 73 102 0.082694 0.642689 -0.761651
-0.476155 0.303177 1.92753 201 72 102 -0.09799 0.618652 -0.779531
-0.536458 0.378075 1.92753 199 69 100 -0.175321 0.617433 -0.766837
-0.47314 0.304602 1.92753 195 67 97 -0.240491 0.74348 -0.62402
-0.535699 0.380062 1.92753 228 134 134 0.412975 -0.668389 -0.618633
-0.472981 0.304684 1.92753 224 135 133 0.442709 -0.599745 -0.666569
-0.470125 0.306221 1.92753 231 143 139 0.427137 -0.599987 -0.676439
-0.468523 0.307699 1.92753 222 129 130 0.374289 -0.795164 -0.477098
-0.46711 0.309628 1.92753 222 129 130 0.283552 -0.859852 -0.424562
-0.46591 0.310714 1.92753 205 69 102 -0.148199 0.232135 -0.961327
-0.533122 0.389108 1.92753 205 69 102 -0.377019 0.120149 -0.91838
-0.464094 0.311852 1.92753 235 135 136 0.441839 -0.821916 -0.359489
-0.530427 0.391004 1.92753 205 69 102 -0.410642 0.066407 -0.909375
-0.461079 0.313399 1.92753 231 126 132 0.301421 -0.918685 -0.25527
-0.528198 0.392123 1.92753 205 69 102 -0.305145 0.099073 -0.947138
-0.460315 0.313729 1.92753 231 120 130 0.275533 -0.93116 -0.238795
-0.527412 0.392507 1.92753 236 117 131 0.437301 -0.876085 -0.203086
-0.497261 0.388753 1.92753 207 74 105 -0.173628 0.107132 -0.978967
-0.458064 0.314785 1.92753 235 135 136 0.399456 -0.881197 -0.252839
-0.534933 0.383077 1.92753 236 117 131 0.443645 -0.861549 -0.246806
-0.494246 0.387506 1.92753 231 124 132 0.286469 -0.897999 -0.333966
-0.524397 0.393489 1.92753 238 108 128 0.222905 -0.957022 -0.185531
-0.521382 0.394539 1.92753 215 136 126 0.725139 -0.459642 -0.512741
-0.455049 0.316341 1.92753 207 72 105 -0.355577 0.161626 -0.920566
-0.492605 0.389108 1.92753 238 108 128 0.492517 -0.832184 -0.25475
-0.518367 0.394207 1.92753 215 136 126 0.729131 -0.209878 -0.651398
-0.491231 0.38947 1.92753 200 73 101 -0.316961 0.008701 -0.948398
-0.515352 0.394758 1.92753 235 111 129 0.440771 -0.871082 -0.21665
-0.488215 0.388064 1.92753 204 131 121 0.606005 0.040775 -0.794415
-0.489533 0.389108 1.92753 236 137 138 0.389526 -0.860653 -0.327941
-0.4852 0.386221 1.92753 239 110 128 0.489687 -0.862368 -0.128561
-0.484993 0.386092 1.92753 235 130 133 0.41783 -0.811647 -0.408225
-0.452034 0.372357 1.92753 235 111 128 0.376008 -0.890231 -0.257112
-0.454253 0.374032 1.92753 233 138 136 0.451931 -0.840189 -0.299735
-0.449019 0.372138 1.92753 236 113 128 0.317055 -0.855276 -0.409852
-0.439973 0.370805 1.92753 235 143 139 0.405367 -0.843603 -0.352153
-0.440825 0.371017 1.92753 240 107 128 0.109936 -0.929702 -0.351522
-0.46711 0.380025 1.92753 209 68 105 -0.201082 -0.159568 -0.966491
-0.467191 0.380062 1.92753 209 68 105 -0.293304 0.006136 -0.955999
-0.503291 0.391741 1.92753 191 98 113 0.006072 0.278082 -0.960538
-0.504348 0.392123 1.92753 209 68 105 -0.257658 0.189495 -0.947473
-0.498115 0.389108 1.92753 191 98 113 0.043293 0.371269 -0.927516
-0.406807 0.363247 1.92753 235 145 142 0.471497 -0.785828 -0.400205
-0.500276 0.390401 1.92753 202 70 102 -0.235 0.168616 -0.957259
-0.403792 0.362525 1.92753 182 80 98 0.142464 0.39636 -0.906974
-0.506306 0.392881 1.92753 233 141 138 0.518833 -0.699006 -0.492141
-0.545503 0.358956 1.92675 206 75 105 -0.305673 0.018715 -0.951953
-0.47917 0.301669 1.92599 208 66 105 -0.170305 0.282025 -0.944171
-0.400777 0.340865 1.92512 234 150 145 0.50574 -0.706033 -0.495726
-0.397762 0.346896 1.92461 238 109 128 0.226537 -0.945962 -0.232028
-0.464094 0.310714 1.92476 233 148 143 0.52453 -0.773077 -0.35668
-0.397762 0.349911 1.92461 237 128 134 0.240355 -0.925865 -0.291555
-0.400777 0.358956 1.92558 206 73 105 -0.372531 -0.070767 -0.925318
-0.458064 0.313729 1.92518 239 113 130 0.315159 -0.885158 -0.342301
-0.406807 0.361971 1.92476 232 146 140 0.396158 -0.803542 -0.444274
-0.403792 0.361971 1.92661 238 120 131 0.376008 -0.890231 -0.257112
-0.397762 0.352926 1.92566 231 144 139 0.460512 -0.73781 -0.493524
-0.397762 0.355941 1.92655 238 128 134 0.398987 -0.900241 -0.174287
-0.548518 0.364987 1.92486 235 151 146 0.495859 -0.663946 -0.559732
-0.545503 0.364987 1.92458 238 127 133 0.41604 -0.889011 -0.191232
-0.548518 0.368002 1.92509 233 148 144 0.544185 -0.638533 -0.544185
-0.545503 0.368002 1.92581 187 72 93 -0.738787 0.331403 -0.586827
-0.548518 0.371017 1.92531 229 135 134 0.621102 -0.702612 -0.34723
-0.545503 0.371017 1.9265 238 127 133 0.401346 -0.868312 -0.291472
-0.491231 0.389108 1.92699 234 140 139 0.599154 -0.616031 -0.51139
-0.4852 0.386092 1.92727 239 135 139 0.420544 -0.87551 -0.237959
-0.455049 0.374032 1.9264 230 139 135 0.589471 -0.552312 -0.589471
-0.545503 0.374032 1.92736 238 137 139 0.459905 -0.854543 -0.241336
-0.542488 0.368002 1.92579 228 142 135 0.549731 -0.610625 -0.570029
-0.542488 0.371017 1.92702 227 142 135 0.514819 -0.589088 -0.622846
-0.539473 0.371017 1.92598 192 119 113 0.529016 0.188396 -0.827435
-0.542488 0.374032 1.92727 185 86 98 0.496066 0.227427 -0.837971
-0.539473 0.374032 1.92696 185 86 98 0.561934 0.180243 -0.807306
-0.533442 0.386092 1.92688 187 70 94 0.682289 0.186359 -0.706931
-0.542488 0.377047 1.9273 208 75 108 -0.338099 0.08353 -0.937396
-0.470125 0.380062 1.9253 212 72 110 -0.094225 0.267185 -0.959028
-0.539473 0.377047 1.92751 234 120 131 0.318903 -0.88114 -0.349131
-0.542488 0.380062 1.92753 205 69 102 -0.360417 0.196722 -0.911812
-0.509321 0.392123 1.92488 205 69 102 -0.387156 0.043605 -0.920982
-0.506306 0.392123 1.92577 205 69 102 -0.48731 0.088987 -0.868683
-0.536458 0.374032 1.92506 205 69 102 -0.41857 0.15 -0.895712
-0.536458 0.377047 1.92713 202 75 102 -0.319496 -0.122675 -0.939613
-0.500276 0.389108 1.92594 202 75 102 -0.443637 0.061427 -0.894099
-0.533442 0.380062 1.92473 218 125 126 0.172938 -0.684102 -0.708588
-0.533442 0.383077 1.92589 203 75 103 -0.421921 0.214662 -0.880853
-0.530427 0.386092 1.92485 235 135 136 0.350886 -0.8145 -0.462026
-0.530427 0.389108 1.92602 231 120 130 0.359172 -0.910191 -0.206271
-0.527412 0.392123 1.92718 235 135 136 0.369615 -0.786037 -0.49551
-0.524397 0.392123 1.92568 207 74 105 -0.375761 0.204565 -0.903857
-0.518367 0.392123 1.92455 235 130 133 0.384499 -0.737911 -0.55466
-0.400777 0.340842 1.93055 200 73 101 -0.41627 0.188417 -0.889504
-0.503772 0.283578 1.93055 231 124 132 0.350034 -0.911817 -0.21463
-0.503892 0.286593 1.93055 200 73 101 -0.380994 0.085419 -0.920623
-0.495739 0.295639 1.93055 233 138 136 0.386421 -0.754906 -0.529902
-0.503291 0.289348 1.93055 200 73 101 -0.46563 0.056315 -0.883186
-0.494246 0.2961 1.93055 203 83 106 -0.459947 0.06768 -0.885363
-0.491231 0.297159 1.93055 199 80 104 -0.368286 0.190592 -0.909967
-0.40076 0.340865 1.93055 199 80 102 -0.312069 0.204751 -0.927734
-0.488215 0.298288 1.93055 199 80 102 -0.31524 0.221096 -0.922898
-0.530427 0.396894 1.93055 209 68 105 -0.234953 -0.052895 -0.970566
-0.527412 0.396074 1.93055 202 75 104 -0.349327 0.053642 -0.935464
-0.487276 0.298654 1.93055 205 81 108 -0.250875 0.08787 -0.964023
-0.397762 0.343511 1.93055 205 81 108 -0.249631 0.143967 -0.957579
-0.524397 0.397081 1.93055 204 87 108 -0.339428 0.138795 -0.930336
-0.4852 0.29961 1.93055 198 80 104 -0.140628 0.215458 -0.966334
-0.397449 0.343881 1.93055 202 70 102 -0.327928 0.159121 -0.931205
-0.521382 0.396781 1.93055 198 74 100 -0.13485 0.014488 -0.99076
-0.394747 0.345893 1.93055 203 82 108 -0.163738 0.075296 -0.983626
-0.482185 0.301069 1.93055 206 75 105 -0.260005 0.0382 -0.964851
-0.481089 0.301669 1.93055 203 82 108 -0.09797 0.240471 -0.9657
-0.39403 0.346896 1.93055 203 84 106 -0.302991 0.041836 -0.952075
-0.517232 0.398153 1.93055 202 81 107 0.03301 0.407999 -0.912386
-0.39313 0.349911 1.93055 215 132 125 0.357714 -0.42705 -0.830463
-0.393749 0.352926 1.93055 202 77 105 -0.027103 0.365239 -0.930519
-0.47917 0.302826 1.93055 206 82 108 -0.301642 0.156963 -0.940412
-0.394136 0.355941 1.93055 206 73 105 -0.207903 -0.046868 -0.977026
-0.476155 0.304274 1.93055 207 75 107 0.027851 0.428376 -0.903171
-0.47536 0.304684 1.93055 203 72 102 -0.158448 0.143476 -0.976887
-0.47314 0.305662 1.93055 215 132 125 0.513975 -0.316659 -0.797218
-0.470125 0.307399 1.93055 198 82 105 0.057209 0.514884 -0.855349
-0.469797 0.307699 1.93055 204 80 105 -0.242189 0.022893 -0.969959
-0.46711 0.310605 1.93055 215 132 125 0.562148 -0.170302 -0.809312
-0.466754 0.310714 1.93055 201 76 104 0.0744 0.503958 -0.860518
-0.464094 0.311485 1.93055 206 79 107 -0.271947 0.015853 -0.962182
-0.461079 0.313424 1.93055 204 77 105 -0.081745 0.572217 -0.816018
-0.460569 0.313729 1.93055 200 120 116 0.623741 0.12297 -0.771898
-0.503291 0.393153 1.93055 208 75 108 -0.060229 0.110231 -0.992079
-0.458064 0.315482 1.93055 204 77 105 -0.090231 0.542816 -0.834991
-0.500276 0.392282 1.93055 205 76 106 -0.04305 0.247228 -0.968001
-0.45555 0.316744 1.93055 202 76 103 -0.412468 0.422098 -0.807282
-0.455049 0.317037 1.93055 191 65 94 0.032447 0.661646 -0.749114
-0.499789 0.392123 1.93055 196 70 99 0.200952 0.587515 -0.783865
-0.491231 0.390446 1.93055 193 64 95 -0.221545 0.577877 -0.785478
-0.4852 0.387695 1.93055 203 84 108 0.008848 0.35014 -0.936656
-0.48802 0.389108 1.93055 205 103 121 0.094362 0.392492 -0.914902
-0.488215 0.389201 1.93055 191 66 94 -0.120431 0.685415 -0.718125
-0.482751 0.386092 1.93055 195 62 97 -0.028315 0.473266 -0.880464
-0.506306 0.394314 1.93055 235 145 142 0.505898 -0.696236 -0.509237
-0.508285 0.395138 1.93055 195 62 97 -0.017608 0.505224 -0.862809
-0.406807 0.364159 1.93055 233 148 143 0.481675 -0.701679 -0.525009
-0.403792 0.363943 1.93055 195 62 97 0.113272 0.598724 -0.792905
-0.400777 0.363083 1.93055 231 144 139 0.478256 -0.666202 -0.572229
-0.399227 0.361971 1.93055 229 135 134 0.594493 -0.510287 -0.621439
-0.397762 0.360734 1.93055 191 73 96 0.531613 0.320884 -0.78385
-0.452034 0.318737 1.93055 223 132 129 0.566746 -0.29854 -0.767901
-0.450095 0.31976 1.93055 230 139 135 0.404134 -0.32981 -0.853171
-0.449019 0.320308 1.93055 216 131 127 0.400477 -0.329349 -0.855072
-0.446004 0.321805 1.93055 191 73 96 0.372528 0.162892 -0.913613
-0.443918 0.322775 1.93055 191 73 96 0.47047 0.150026 -0.869569
-0.442989 0.32319 1.93055 194 68 98 0.236223 0.599161 -0.764987
-0.439973 0.32453 1.93055 194 65 98 0.174743 0.609322 -0.773429
-0.436958 0.325734 1.93055 193 70 97 0.249763 0.222165 -0.942476
-0.436816 0.32579 1.93055 193 69 97 0.354913 0.238069 -0.904079
-0.433943 0.32686 1.93055 193 67 97 0.111829 0.547529 -0.829281
-0.430928 0.327759 1.93055 193 69 97 0.377563 0.441287 -0.814071
-0.397762 0.343881 1.92964 189 110 109 0.541905 0.268596 -0.796364
-0.394747 0.346896 1.9286 238 108 128 0.261971 -0.867685 -0.422485
-0.394747 0.349911 1.92807 236 113 128 0.050984 -0.872239 -0.486415
-0.536458 0.386092 1.92819 240 107 128 0.041487 -0.903341 -0.426912
-0.494246 0.295639 1.92909 238 109 128 0.201756 -0.882132 -0.425603
-0.536458 0.389108 1.92827 238 128 134 0.409604 -0.830278 -0.377974
-0.533442 0.389108 1.92764 239 135 139 0.433247 -0.839905 -0.32689
-0.400777 0.361971 1.92863 206 67 102 0.164217 0.119767 -0.979126
-0.536458 0.392123 1.92828 206 67 102 0.186532 0.11893 -0.975224
-0.491231 0.295639 1.9276 209 67 104 -0.038665 0.179267 -0.98304
-0.394747 0.352926 1.92938 209 67 104 0.057655 0.163553 -0.984848
-0.533442 0.392123 1.92852 209 67 104 -0.19685 0.150532 -0.968809
-0.394747 0.355941 1.92979 209 67 104 -0.203616 0.137024 -0.969415
-0.4852 0.298654 1.92845 206 68 103 0.054775 0.15034 -0.987116
-0.47314 0.304684 1.9278 207 70 104 0.001166 -0.218041 -0.975939
-0.397762 0.358956 1.92787 207 70 104 -0.047679 -0.092032 -0.994614
-0.455049 0.316744 1.92908 209 71 106 -0.205018 0.001158 -0.978758
-0.539473 0.380062 1.92835 231 122 130 0.327605 -0.940372 -0.091517
-0.536458 0.380062 1.928 231 122 130 0.307509 -0.938929 -0.154438
-0.539473 0.383077 1.92834 237 153 147 0.432671 -0.881475 -0.189202
-0.536458 0.383077 1.92842 209 71 106 -0.040203 -0.074973 -0.996375
-0.503291 0.392123 1.92833 237 153 147 0.410923 -0.895379 -0.171578
-0.500276 0.392123 1.93023 236 113 129 0.336132 -0.931565 -0.138569
-0.497261 0.389108 1.92798 236 137 138 0.381294 -0.905034 -0.188489
-0.494246 0.389108 1.92871 236 148 143 0.420252 -0.883267 -0.207914
-0.488215 0.389108 1.93023 237 114 130 0.440744 -0.893924 -0.081517
-0.533442 0.395138 1.92959 236 118 132 0.377832 -0.919162 -0.111289
-0.46711 0.380062 1.92757 207 70 104 -0.079893 0.079893 -0.993597
-0.452034 0.374032 1.92979 237 148 143 0.447011 -0.868606 -0.213788
-0.449019 0.374032 1.9301 240 111 131 0.400545 -0.906497 -0.133515
-0.509321 0.395138 1.92985 235 143 139 0.431099 -0.878493 -0.20592
-0.530427 0.392123 1.92817 206 69 103 0.062297 0.022174 -0.997811
-0.530427 0.395138 1.92961 240 107 128 0.445258 -0.894552 0.039011
-0.527412 0.395138 1.93001 238 108 128 0.459331 -0.888217 -0.009266
-0.524397 0.395138 1.92907 241 109 129 0.454893 -0.889418 0.04481
-0.521382 0.395138 1.92829 222 139 132 0.707968 -0.585848 -0.394416
-0.518367 0.395138 1.92851 222 139 132 0.78081 -0.355792 -0.513564
-0.515352 0.395138 1.92782 241 107 128 0.513889 -0.854605 -0.07462
-0.515352 0.398153 1.93008 219 133 128 0.695184 -0.358224 -0.623212
-0.424898 0.329443 1.93055 240 110 128 0.200378 -0.977602 -0.064364
-0.412837 0.364536 1.93055 204 62 100 -0.043215 0.169357 -0.984607
-0.418868 0.365175 1.93055 241 108 128 0.205273 -0.966978 -0.15105
-0.418868 0.330761 1.93055 219 133 128 0.661194 -0.199752 -0.723133
-0.4144 0.33182 1.93055 243 111 130 0.217829 -0.973463 -0.070148
-0.449019 0.31976 1.9293 214 73 111 -0.217361 0.083218 -0.972537
-0.442989 0.31976 1.9258 240 109 128 0.241597 -0.965108 -0.100985
-0.430928 0.32579 1.92834 212 72 110 -0.237733 -0.013141 -0.971242
-0.424898 0.32579 1.92642 237 128 134 0.269449 -0.963008 -0.003625
-0.500276 0.293098 1.93356 237 128 134 0.388057 -0.921145 -0.030052
-0.497261 0.295567 1.93356 208 69 104 -0.307617 0.039243 -0.950701
-0.455049 0.317459 1.93356 239 149 145 0.482122 -0.851598 -0.205765
-0.452034 0.319429 1.93356 197 85 109 -0.339256 0.262887 -0.903214
-0.494246 0.296208 1.93356 236 150 145 0.551572 -0.814513 -0.179827
-0.451494 0.31976 1.93356 238 117 130 0.382721 -0.919346 -0.091254
-0.491231 0.297122 1.93356 234 149 143 0.547052 -0.818318 -0.176323
-0.449019 0.321177 1.93356 234 152 145 0.47552 -0.834871 -0.277258
-0.488733 0.298654 1.93356 209 71 105 -0.48084 0.028444 -0.876347
-0.446004 0.322685 1.93356 237 128 133 0.407806 -0.906082 -0.112738
-0.445834 0.322775 1.93356 238 127 133 0.387038 -0.915944 -0.106057
-0.4852 0.300612 1.93356 205 65 103 -0.497427 0.006704 -0.86748
-0.442989 0.324224 1.93356 238 132 136 0.407597 -0.901826 -0.14344
-0.439973 0.325729 1.93356 204 61 99 -0.183842 0.14327 -0.972459
-0.439854 0.32579 1.93356 211 74 110 0.284831 0.239485 -0.92818
-0.477727 0.304684 1.93356 237 143 141 0.425878 -0.888094 -0.172967
-0.436958 0.32734 1.93356 207 68 105 -0.214495 0.344055 -0.914122
-0.476155 0.305542 1.93356 238 137 139 0.446687 -0.883319 -0.142193
-0.47314 0.30687 1.93356 207 68 105 -0.021995 0.379095 -0.925096
-0.476155 0.384846 1.93356 205 60 101 0.200909 0.250111 -0.947143
-0.433943 0.328739 1.93356 232 146 140 0.422933 -0.882706 -0.204835
-0.471576 0.307699 1.93356 201 60 98 0.089379 -0.107951 -0.99013
-0.478706 0.386092 1.93356 232 146 140 0.504623 -0.838007 -0.207607
-0.433799 0.328805 1.93356 198 124 114 0.586398 -0.231759 -0.77616
-0.430928 0.329998 1.93356 236 118 131 0.397912 -0.917155 -0.022179
-0.470125 0.308644 1.93356 235 141 141 0.576599 -0.753273 -0.316407
-0.403686 0.33785 1.93356 194 125 114 0.730331 -0.018154 -0.682852
-0.47314 0.384405 1.93356 234 137 139 0.65023 -0.710643 -0.268677
-0.467242 0.310714 1.93356 235 120 131 0.512336 -0.857575 -0.045572
-0.46711 0.382718 1.93356 237 142 141 0.570081 -0.759572 -0.313143
-0.467934 0.383077 1.93356 184 119 112 0.574816 0.203868 -0.79248
-0.46711 0.310793 1.93356 234 143 140 0.569269 -0.738908 -0.360483
-0.400777 0.339731 1.93356 184 119 112 0.41332 0.285206 -0.864769
-0.458064 0.379506 1.93356 220 132 129 0.626939 -0.653547 -0.424057
-0.459144 0.380062 1.93356 183 88 98 0.440995 0.316332 -0.839915
-0.399448 0.340865 1.93356 228 142 135 0.601424 -0.668063 -0.438156
-0.470125 0.383927 1.93356 183 88 98 0.498446 0.254624 -0.828685
-0.397762 0.342252 1.93356 229 144 137 0.625387 -0.65207 -0.428598
-0.464094 0.381771 1.93356 202 68 102 -0.147816 0.37869 -0.913643
-0.396453 0.343881 1.93356 200 81 108 -0.122433 0.48541 -0.865672
-0.455049 0.378246 1.93356 195 65 96 0.058215 0.586414 -0.807917
-0.461079 0.313531 1.93356 220 126 128 0.427364 -0.888049 -0.169497
-0.394747 0.346006 1.93356 237 128 134 0.321595 -0.928273 -0.186778
-0.461079 0.380911 1.93356 182 80 98 0.054221 0.276148 -0.959584
-0.460746 0.313729 1.93356 182 80 98 0.101169 0.295622 -0.949933
-0.394062 0.346896 1.93356 156 122 121 0.289775 0.269592 -0.918341
-0.392322 0.349911 1.93356 222 139 132 0.731502 -0.233391 -0.640651
-0.458064 0.315516 1.93356 197 82 108 0.120422 0.244729 -0.962084
-0.391732 0.351396 1.93356 197 82 108 0.033348 0.270488 -0.962146
-0.456041 0.316744 1.93356 206 129 119 0.667587 -0.098304 -0.738014
-0.391548 0.352926 1.93356 236 150 145 0.559619 -0.773263 -0.298145
-0.391732 0.354717 1.93356 154 130 123 0.09049 0.031617 -0.995395
-0.392346 0.355941 1.93356 154 125 120 0.042667 -0.232838 -0.971579
-0.4852 0.389063 1.93356 154 125 120 -0.153902 -0.045129 -0.987055
-0.485324 0.389108 1.93356 154 125 120 0.012513 -0.164939 -0.986224
-0.488215 0.39021 1.93356 232 146 140 0.435714 -0.822312 -0.366
-0.482185 0.387981 1.93356 235 141 141 0.594789 -0.71604 -0.365394
-0.47917 0.386339 1.93356 186 100 105 0.495063 0.141655 -0.857232
-0.433943 0.369615 1.93356 146 116 112 -0.011563 -0.068328 -0.997596
-0.435829 0.371017 1.93356 186 100 105 0.48567 0.28578 -0.826108
-0.430928 0.368294 1.93356 213 67 108 -0.156473 0.126903 -0.979496
-0.436958 0.32579 1.93063 183 110 109 0.493225 0.272285 -0.82619
-0.488215 0.298654 1.93174 213 67 108 -0.102601 -0.00756 -0.994694
-0.430928 0.328805 1.93178 208 66 105 -0.143157 0.240347 -0.960073
-0.524397 0.398153 1.93138 198 124 114 0.443546 0.001308 -0.896251
-0.391732 0.352926 1.93315 213 67 109 -0.244526 0.073985 -0.966816
-0.476155 0.304684 1.93131 213 67 109 -0.277122 0.010987 -0.960772
-0.521382 0.398153 1.93137 190 86 105 -0.267127 0.272841 -0.92423
-0.470125 0.307699 1.93118 213 67 108 -0.142973 0.001108 -0.989726
-0.482185 0.386092 1.93103 197 85 109 -0.218357 0.323968 -0.920524
-0.47917 0.386092 1.93288 213 67 108 -0.236105 0.005932 -0.971709
-0.46711 0.310714 1.93205 202 89 114 -0.194951 0.34579 -0.917836
-0.461079 0.380062 1.93156 205 67 101 -0.177368 0.134599 -0.974897
-0.430928 0.368002 1.93203 205 67 101 -0.307858 0.063117 -0.949336
-0.455049 0.317106 1.93658 193 67 96 -0.028796 0.527929 -0.8488
-0.452034 0.319105 1.93658 205 69 102 -0.308506 0.03148 -0.950701
-0.476155 0.38586 1.93658 207 71 105 -0.244165 0.058252 -0.967983
-0.450965 0.31976 1.93658 207 70 104 -0.211026 0.017684 -0.97732
-0.449019 0.321144 1.93658 207 72 105 -0.161554 0.026353 -0.986512
-0.446004 0.322645 1.93658 209 67 105 0.082069 0.011724 -0.996558
-0.445551 0.322775 1.93658 209 67 105 0.216753 0.112813 -0.969686
-0.476802 0.386092 1.93658 210 66 105 -0.15971 0.085259 -0.983475
-0.47314 0.385233 1.93658 210 66 105 -0.232962 0.089407 -0.968367
