ply
format ascii 1.0
element vertex 722
property float x
property float y
property float z
property uchar red
property uchar green
property uchar blue
property float nx
property float ny
property float nz
end_header
-0.897386 0.340865 1.75567 85 105 111 0.84295 -0.136338 -0.52043
-0.928424 0.300237 1.75567 76 96 103 0.854788 -0.012192 -0.518834
-0.925409 0.301092 1.75567 62 83 91 0.874029 0.115492 -0.471947
-0.924165 0.301669 1.75567 55 72 82 0.881387 0.217754 -0.419214
-0.895939 0.343881 1.75567 112 113 112 0.253463 -0.964671 0.071877
-0.895258 0.345338 1.75567 112 113 112 0.249147 -0.96497 -0.082206
-0.922394 0.302639 1.75567 102 106 106 0.333763 -0.921753 -0.197417
-0.894591 0.346896 1.75567 108 114 115 0.402012 -0.877802 -0.26048
-0.919983 0.304684 1.75567 107 109 107 0.405858 -0.850591 -0.334327
-0.919379 0.304946 1.75567 108 114 115 0.438838 -0.857799 -0.267584
-0.893688 0.349911 1.75567 97 109 111 0.508131 -0.733232 -0.451856
-0.973651 0.268076 1.75567 104 113 114 0.62934 -0.655908 -0.416792
-0.893216 0.352926 1.75567 89 98 100 0.648714 -0.658618 -0.381305
-0.97203 0.268502 1.75567 94 104 107 0.549174 -0.689388 -0.47239
-0.919379 0.292472 1.75567 113 123 122 0.575459 -0.795262 -0.190802
-0.892941 0.355941 1.75567 113 123 122 0.398152 -0.901231 -0.171047
-0.970636 0.268849 1.75567 130 132 126 0.125997 -0.985178 0.116397
-0.967621 0.269502 1.75567 133 132 123 0.234203 -0.96167 0.142615
-0.919291 0.292623 1.75567 120 123 120 0.327436 -0.939542 0.100236
-0.892743 0.358956 1.75567 119 121 119 0.32856 -0.940817 0.08313
-0.917429 0.295639 1.75567 142 127 112 0.146242 -0.652811 -0.74327
-0.893142 0.361971 1.75567 94 112 114 0.783907 -0.17437 -0.59589
-0.917237 0.298654 1.75567 85 104 109 0.829536 -0.037517 -0.557192
-0.964606 0.270661 1.75567 63 83 92 0.845685 0.075078 -0.528376
-0.895258 0.369132 1.75567 58 75 84 0.795095 0.234034 -0.559511
-0.962381 0.271518 1.75567 108 114 115 0.486143 -0.728385 -0.482825
-0.961591 0.271805 1.75567 113 123 122 0.437752 -0.728486 -0.526955
-0.916825 0.301669 1.75567 97 111 116 0.484837 -0.422804 -0.765618
-0.958575 0.273204 1.75567 61 86 100 0.550053 0.440375 -0.709585
-0.95556 0.274449 1.75567 96 110 115 0.586127 -0.306713 -0.749921
-0.917012 0.304684 1.75567 83 104 114 0.524143 -0.168741 -0.834746
-0.955298 0.274533 1.75567 67 92 108 0.464488 0.103063 -0.879562
-0.9435 0.278131 1.75567 71 95 110 0.427862 0.0013 -0.903843
-0.952545 0.275381 1.75567 50 73 90 0.565688 0.36028 -0.741752
-0.94953 0.276343 1.75567 115 82 77 -0.552453 -0.833454 0.012277
-0.940485 0.279535 1.75567 115 82 77 -0.576315 -0.813705 0.075793
-0.946515 0.277045 1.75567 120 119 113 0.250288 -0.960952 0.118012
-0.937959 0.280563 1.75567 120 119 113 0.143304 -0.983858 0.107177
-0.944917 0.277548 1.75567 119 118 113 0.258267 -0.965105 0.043251
-0.937469 0.280753 1.75567 114 114 109 0.39172 -0.919289 -0.038249
-0.934454 0.282331 1.75567 114 114 109 0.332102 -0.929609 -0.159798
-0.932713 0.283578 1.75567 114 114 109 0.369342 -0.905251 -0.210018
-0.931439 0.28442 1.75567 109 114 113 0.343136 -0.881269 -0.324996
-0.95556 0.442211 1.75567 143 136 124 0.470515 -0.773338 -0.424929
-0.928424 0.285698 1.75567 105 108 108 0.571297 -0.728445 -0.378137
-0.957055 0.44338 1.75567 86 93 93 0.727249 -0.552445 -0.407325
-0.925862 0.286593 1.75567 136 133 125 0.202607 -0.9762 -0.077359
-0.925409 0.286797 1.75567 111 115 114 0.716395 -0.633056 -0.293289
-0.894143 0.364987 1.75567 126 126 120 0.286119 -0.958193 -0.001218
-0.89496 0.368002 1.75567 115 119 117 0.570955 -0.799337 -0.187273
-0.922394 0.287318 1.75567 111 119 118 0.361906 -0.901102 -0.238829
-0.921678 0.289608 1.75567 104 115 117 0.2334 -0.943267 -0.236162
-0.940485 0.298575 1.75567 100 111 115 0.360475 -0.835862 -0.413996
-0.942157 0.298654 1.75567 100 112 116 0.352667 -0.784241 -0.510482
-0.937469 0.298345 1.75567 93 107 114 0.352081 -0.643572 -0.679599
-0.935059 0.298654 1.75567 91 106 113 0.476157 -0.492747 -0.728337
-0.934454 0.298934 1.75567 82 103 109 0.788879 -0.14167 -0.597997
-0.895856 0.371017 1.75567 93 108 115 0.551015 -0.322898 -0.769493
-0.931439 0.298654 1.75451 82 103 109 0.840361 -0.114661 -0.529761
-0.928424 0.298654 1.75505 68 95 110 0.50258 -0.045439 -0.863336
-0.925409 0.298654 1.75441 72 93 102 0.882031 0.012009 -0.471039
-0.898273 0.343881 1.75295 59 81 89 0.896179 0.19318 -0.399431
-0.922394 0.295639 1.7528 54 74 84 0.910022 0.22425 -0.348673
-0.922394 0.298654 1.75407 144 130 116 0.001366 -0.802126 -0.597153
-0.895258 0.346896 1.75475 129 136 126 0.536179 -0.453179 -0.712138
-0.919379 0.295639 1.75423 127 135 126 0.609118 -0.30697 -0.731263
-0.895258 0.349911 1.75325 119 129 122 0.66465 -0.165782 -0.72853
-0.919379 0.298654 1.75438 106 119 117 0.727224 -0.052863 -0.684362
-0.922394 0.301669 1.75517 114 114 109 0.41101 -0.909612 -0.060641
-0.919379 0.301669 1.75462 109 114 113 0.536915 -0.804594 -0.253673
-0.895258 0.368002 1.75461 86 93 93 0.659729 -0.704241 -0.262302
-0.919379 0.304684 1.75551 100 112 116 0.499322 -0.556483 -0.664081
-0.919379 0.292623 1.75556 89 106 114 0.394626 -0.462276 -0.794085
-0.973651 0.268502 1.75427 91 106 113 0.469289 -0.309197 -0.827142
-0.964606 0.271518 1.75335 73 97 110 0.528471 0.114381 -0.84121
-0.958575 0.274533 1.75313 59 86 102 0.361581 0.460339 -0.81077
-0.95556 0.274533 1.75553 143 136 124 0.334311 -0.913206 -0.233005
-0.94953 0.277548 1.75381 129 136 126 0.591465 -0.29974 -0.748548
-0.946515 0.277548 1.75454 128 136 126 0.662587 -0.230261 -0.712712
-0.940485 0.280563 1.75336 121 132 126 0.772477 -0.11373 -0.624776
-0.934454 0.283578 1.75395 104 119 119 0.798981 -0.177383 -0.574599
-0.931439 0.286593 1.75317 120 118 113 0.234394 -0.970708 0.052769
-0.928424 0.286593 1.75472 120 118 113 0.15198 -0.9861 0.067154
-0.925409 0.289608 1.75396 125 121 113 0.210475 -0.971712 0.107128
-0.922394 0.289608 1.75524 69 92 102 0.817214 0.006844 -0.576293
-0.934454 0.298654 1.7554 69 92 102 0.856657 0.028692 -0.515087
-0.958575 0.44338 1.75511 53 80 98 0.209861 0.804214 -0.556056
-0.95556 0.272323 1.75869 60 84 95 0.896842 0.09316 -0.432431
-0.924159 0.283578 1.75869 53 79 96 0.474978 0.458542 -0.751089
-0.952545 0.273483 1.75869 56 73 83 0.862311 0.324327 -0.388885
-0.922394 0.284093 1.75869 56 73 83 0.911905 0.187535 -0.365048
-0.95017 0.274533 1.75869 53 75 88 0.87812 0.231084 -0.418933
-0.895258 0.340084 1.75869 114 114 109 0.244165 -0.967983 0.058252
-0.94953 0.274809 1.75869 114 114 107 0.104811 -0.994046 -0.029788
-0.920157 0.286593 1.75869 112 114 111 0.282036 -0.933103 -0.223103
-0.894865 0.340865 1.75869 105 108 108 0.323725 -0.900223 -0.291205
-0.946515 0.276015 1.75869 102 105 105 0.433247 -0.839905 -0.32689
-0.919379 0.28814 1.75869 141 130 116 0.152078 -0.775445 -0.612827
-0.893442 0.343881 1.75869 106 106 104 0.671925 -0.591894 -0.445171
-0.9435 0.276969 1.75869 81 83 82 0.759867 -0.471019 -0.448043
-0.892667 0.346896 1.75869 119 123 119 0.481451 -0.782966 -0.393915
-0.892243 0.349593 1.75869 109 113 111 0.260346 -0.836495 -0.482179
-0.892201 0.349911 1.75869 114 115 112 0.242126 -0.886805 -0.39364
-0.89188 0.352926 1.75869 114 115 112 0.28596 -0.863996 -0.414412
-0.891517 0.355941 1.75869 104 113 115 0.318932 -0.801298 -0.506166
-0.89161 0.358956 1.75869 131 138 128 0.695184 -0.358224 -0.623212
-0.892243 0.360842 1.75869 93 107 114 0.333214 -0.801945 -0.495835
-0.892684 0.361971 1.75869 115 127 123 0.776613 -0.239078 -0.58285
-0.895258 0.371729 1.75869 120 130 125 0.783364 -0.129322 -0.607962
-0.896759 0.374032 1.75869 98 109 114 0.409974 -0.678864 -0.609152
-0.913348 0.329333 1.75869 88 107 111 0.771473 -0.0069 -0.636224
-0.914435 0.33182 1.75869 90 107 115 0.355826 -0.6641 -0.657541
-0.942073 0.277548 1.75869 91 107 115 0.406825 -0.649259 -0.642617
-0.940485 0.278277 1.75869 93 107 115 0.543366 -0.304349 -0.782384
-0.937469 0.279514 1.75869 64 91 106 0.543441 -0.063519 -0.837041
-0.934454 0.280553 1.75869 144 132 119 0.32089 -0.790252 -0.522045
-0.93444 0.280563 1.75869 138 128 118 0.226359 -0.932148 -0.282597
-0.904303 0.328394 1.75869 139 131 118 0.370558 -0.906929 -0.200418
-0.931439 0.281722 1.75869 102 105 105 0.620374 -0.647129 -0.443125
-0.903863 0.328805 1.75869 83 104 109 0.789971 -0.055511 -0.610626
-0.961591 0.270363 1.75869 109 113 111 0.230734 -0.897952 -0.374759
-0.928424 0.281989 1.75869 83 104 109 0.867568 -0.036889 -0.495948
-0.925409 0.283353 1.75869 114 115 112 0.172036 -0.911362 -0.373929
-0.958575 0.271037 1.75869 61 85 94 0.897208 0.052937 -0.438424
-0.957404 0.271518 1.75869 93 107 114 0.461241 -0.615547 -0.639029
-0.919379 0.30787 1.75869 57 77 86 0.898023 0.214649 -0.384032
-0.901288 0.331425 1.75869 90 107 115 0.403981 -0.413561 -0.815945
-0.900903 0.33182 1.75869 141 130 116 0.001362 -0.813364 -0.581753
-0.916364 0.294803 1.75869 77 99 113 0.358938 -0.078726 -0.930035
-0.913959 0.298654 1.75869 68 95 110 0.311098 0.419441 -0.852811
-0.914226 0.301669 1.75869 91 107 115 0.384478 -0.281951 -0.879022
-0.893393 0.364987 1.75869 53 80 98 0.400883 0.326588 -0.85594
-0.913348 0.304364 1.75869 78 100 112 0.438023 -0.093167 -0.894123
-0.89403 0.368002 1.75869 131 138 128 0.649522 -0.315852 -0.691635
-0.913348 0.307691 1.75869 126 135 129 0.756676 -0.073787 -0.649613
-0.913383 0.307699 1.75869 106 119 118 0.755513 -0.026632 -0.654592
-0.894889 0.371017 1.75869 115 108 102 0.001063 -0.995717 -0.092452
-0.913217 0.304684 1.75869 115 108 102 0.121157 -0.975504 -0.18361
-0.916364 0.309973 1.75869 115 108 102 0.274322 -0.928146 -0.25158
-0.952545 0.274533 1.75702 104 104 101 0.435909 -0.870319 -0.229189
-0.9435 0.277548 1.7571 84 86 89 0.54221 -0.778927 -0.315089
-0.931439 0.283578 1.75659 99 99 97 0.648679 -0.564435 -0.510519
-0.928424 0.283578 1.75822 123 123 117 0.486155 -0.689973 -0.536274
-0.925409 0.283578 1.75845 55 81 97 0.131534 0.577865 -0.805463
-0.925409 0.286593 1.75578 123 122 115 0.294659 -0.850038 -0.43659
-0.922394 0.286593 1.75585 55 81 97 0.23133 0.784038 -0.575996
-0.919379 0.289608 1.75765 50 76 93 0.149736 0.721454 -0.67608
-0.913348 0.33182 1.75802 117 117 113 0.228281 -0.875824 -0.42523
-0.895258 0.340865 1.75822 53 79 95 0.11703 0.507131 -0.853887
-0.895258 0.343881 1.75651 114 116 113 0.240153 -0.862436 -0.445567
-0.910333 0.33182 1.75626 60 85 98 0.82906 0.127661 -0.544392
-0.892243 0.349911 1.75861 53 77 94 -0.014741 0.483769 -0.875072
-0.892243 0.352926 1.75793 82 102 113 0.194566 -0.511302 -0.837087
-0.892243 0.355941 1.75731 82 102 113 0.19728 -0.40479 -0.892875
-0.913348 0.334835 1.75613 77 99 112 0.24335 -0.315348 -0.917244
-0.892243 0.358956 1.75705 114 115 113 0.319569 -0.840234 -0.438044
-0.904303 0.328805 1.75848 70 95 110 0.471304 -0.356274 -0.806809
-0.901288 0.33182 1.75845 80 103 116 0.550435 -0.210055 -0.808021
-0.940485 0.298654 1.75573 108 113 113 0.28825 -0.852418 -0.436228
-0.937469 0.298654 1.75597 131 122 110 0.238927 -0.951658 -0.193031
-0.895258 0.371017 1.75743 52 79 95 0.001116 0.15516 -0.987889
-0.937469 0.301669 1.75717 98 110 114 0.379308 -0.805029 -0.45613
-0.946515 0.43735 1.75793 128 122 112 0.249198 -0.965168 -0.079693
-0.934454 0.301669 1.75672 61 87 104 -0.152061 0.355739 -0.922132
-0.931439 0.301669 1.75612 125 116 108 0.190304 -0.980247 -0.05386
-0.937469 0.280563 1.75615 52 79 95 0.073713 0.640289 -0.764589
-0.928424 0.301669 1.75611 98 107 111 0.449309 -0.786696 -0.423356
-0.925409 0.301669 1.75594 120 113 107 0.009647 -0.995794 -0.091111
-0.934454 0.280563 1.75867 57 87 104 0.599785 -0.067279 -0.797328
-0.916364 0.295639 1.75747 98 107 111 0.345744 -0.80461 -0.482766
-0.916364 0.298654 1.75644 125 116 108 0.000978 -0.999999 0.000978
-0.916364 0.301669 1.75605 98 107 111 0.480682 -0.668265 -0.567774
-0.916364 0.304684 1.75585 93 106 113 0.544649 -0.554767 -0.62896
-0.961591 0.271518 1.75631 78 101 112 0.224038 -0.567048 -0.792631
-0.958575 0.271518 1.75794 140 127 113 0.515343 -0.757472 -0.400822
-0.913348 0.304684 1.75855 143 120 105 0.615769 -0.30065 -0.728312
-0.916364 0.307699 1.75763 136 141 130 0.652898 -0.435822 -0.619502
-0.919713 0.283578 1.7617 132 140 130 0.749687 -0.356142 -0.557793
-0.954432 0.271518 1.7617 60 85 98 0.889398 0.096643 -0.4468
-0.952545 0.272023 1.7617 114 126 121 0.782384 -0.304349 -0.543366
-0.919379 0.283902 1.7617 65 90 102 0.809267 0.150527 -0.567828
-0.895258 0.333553 1.7617 99 115 115 0.787891 -0.241828 -0.566345
-0.94953 0.273299 1.7617 62 85 98 0.895697 0.122718 -0.427396
-0.894541 0.334835 1.7617 103 118 117 0.827533 -0.155998 -0.539308
-0.893214 0.33785 1.7617 54 76 87 0.878404 0.215514 -0.426568
-0.947424 0.274533 1.7617 86 106 111 0.829619 0.034741 -0.557248
-0.946515 0.274907 1.7617 115 108 102 0.12942 -0.986681 -0.098549
-0.892243 0.340627 1.7617 99 99 97 0.556854 -0.590706 -0.583935
-0.9435 0.275578 1.7617 60 85 98 0.791041 0.079248 -0.606609
-0.892173 0.340865 1.7617 114 116 113 0.269353 -0.865887 -0.42153
-0.891208 0.343881 1.7617 62 84 94 0.885687 0.226985 -0.405013
-0.890563 0.346896 1.7617 98 110 114 0.421911 -0.746963 -0.513845
-0.958575 0.270002 1.7617 98 107 111 0.421598 -0.756251 -0.50034
-0.95556 0.271109 1.7617 55 81 97 0.342301 0.315159 -0.885158
-0.922316 0.310714 1.7617 98 107 111 0.542496 -0.446273 -0.711715
-0.919379 0.313211 1.7617 53 79 95 0.221314 0.243308 -0.944363
-0.940485 0.276725 1.7617 53 77 94 0.11159 0.130788 -0.98511
-0.938666 0.277548 1.7617 81 101 112 0.457965 -0.124121 -0.880263
-0.916364 0.292837 1.7617 78 101 112 0.383405 -0.255106 -0.887649
-0.937469 0.2781 1.7617 82 102 113 0.231513 -0.162721 -0.959126
-0.934454 0.279143 1.7617 77 99 112 0.125511 -0.021104 -0.991868
-0.931439 0.280041 1.7617 70 95 110 0.080471 -0.05181 -0.99541
-0.910333 0.297379 1.7617 61 87 104 0.006937 0.006937 -0.999952
-0.890529 0.349911 1.7617 125 116 108 0.153969 -0.98611 0.062293
-0.909507 0.298654 1.7617 136 141 130 0.639575 -0.445866 -0.626216
-0.890366 0.352926 1.7617 99 115 115 0.755666 -0.101245 -0.647085
-0.929956 0.280563 1.7617 88 107 111 0.739608 0.006938 -0.673002
-0.890171 0.355941 1.7617 128 113 103 0.053936 -0.979245 -0.19537
-0.928424 0.281042 1.7617 128 113 103 0.123857 -0.98484 -0.121452
-0.925409 0.281574 1.7617 115 108 102 0.378681 -0.916879 -0.126227
-0.890451 0.358956 1.7617 143 120 105 0.772276 -0.619912 -0.13892
-0.909442 0.301669 1.7617 143 120 105 0.300987 -0.808409 -0.505847
-0.89113 0.361971 1.7617 115 108 102 0.38855 -0.895865 -0.215535
-0.909931 0.304684 1.7617 143 120 105 -0.181294 -0.775451 -0.604821
-0.895258 0.372585 1.7617 99 95 91 0.398893 -0.860931 -0.315726
-0.896173 0.374032 1.7617 58 83 98 0.835708 0.127332 -0.534209
-0.922394 0.282343 1.7617 95 93 91 0.460876 -0.787532 -0.409129
-0.891879 0.364987 1.7617 58 83 98 0.836441 0.155445 -0.525551
-0.892243 0.367121 1.7617 129 137 126 0.704443 -0.429296 -0.565212
-0.892409 0.368002 1.7617 56 80 93 0.88241 0.223939 -0.413769
-0.909249 0.307699 1.7617 121 131 123 0.77005 -0.326347 -0.548198
-0.918749 0.313729 1.7617 102 100 98 0.461414 -0.707945 -0.534707
-0.910182 0.310714 1.7617 136 123 109 0.381171 -0.830352 -0.406477
-0.909682 0.313729 1.7617 125 120 110 0.345318 -0.842201 -0.414069
-0.916364 0.316426 1.7617 119 118 113 0.309931 -0.743513 -0.592563
-0.916203 0.316744 1.7617 125 116 108 0.117576 -0.962572 -0.244196
-0.915414 0.31976 1.7617 127 136 126 0.792734 -0.289562 -0.536401
-0.909037 0.316744 1.7617 117 117 113 0.238847 -0.824406 -0.513135
-0.907318 0.318883 1.7617 102 118 116 0.805717 -0.277996 -0.523009
-0.915172 0.322775 1.7617 94 112 113 0.830533 -0.191429 -0.52304
-0.916285 0.32579 1.7617 86 107 111 0.85478 -0.025985 -0.518339
-0.906349 0.31976 1.7617 117 117 113 0.278943 -0.849158 -0.448466
-0.904303 0.321582 1.7617 50 76 93 0.286487 0.728222 -0.62259
-0.902678 0.322775 1.7617 50 76 93 0.379863 0.043375 -0.924025
-0.901288 0.324194 1.7617 114 115 113 0.324311 -0.851898 -0.411208
-0.900151 0.32579 1.7617 50 76 93 0.037659 0.824311 -0.564883
-0.916364 0.325942 1.7617 114 115 113 0.367335 -0.857115 -0.361135
-0.918588 0.328805 1.7617 51 77 94 -0.193142 0.699946 -0.687585
-0.898273 0.328265 1.7617 97 103 105 0.389495 -0.843124 -0.370724
-0.897921 0.328805 1.7617 98 107 111 0.360475 -0.832714 -0.420292
-0.896252 0.33182 1.7617 102 107 111 0.313853 -0.83538 -0.451261
-0.922394 0.283578 1.7594 94 106 113 0.332196 -0.737313 -0.58823
-0.919379 0.286593 1.75978 98 108 113 0.209726 -0.681997 -0.700639
-0.95556 0.271518 1.76089 94 106 113 0.268623 -0.735931 -0.621488
-0.895258 0.334835 1.76094 102 111 115 0.286054 -0.739905 -0.608863
-0.895258 0.33785 1.7598 101 111 115 0.330241 -0.691391 -0.642587
-0.892243 0.340865 1.76162 97 110 115 0.471932 -0.643238 -0.602931
-0.892243 0.343881 1.76019 95 113 121 0.573477 -0.506207 -0.644111
-0.892243 0.346896 1.75927 75 100 114 0.570043 -0.35242 -0.742193
-0.916364 0.313729 1.7606 80 103 116 0.541808 -0.143203 -0.828213
-0.913348 0.313729 1.76002 57 87 104 0.63089 0.073628 -0.772371
-0.913348 0.316744 1.76072 57 87 104 0.638744 0.503916 -0.581442
-0.892243 0.361971 1.75977 54 80 97 -0.118325 0.876746 -0.466172
-0.919379 0.310714 1.76024 54 80 97 -0.022438 0.906763 -0.421044
-0.913348 0.31976 1.76065 49 73 93 0.11863 0.908563 -0.400549
-0.910333 0.313729 1.76118 128 113 103 0.19685 -0.960469 -0.19685
-0.910333 0.316744 1.76104 143 120 105 0.34677 -0.587718 -0.730984
-0.913348 0.298654 1.75929 99 95 91 0.533729 -0.780558 -0.325366
-0.913348 0.301669 1.7595 143 120 105 -0.091157 -0.803048 -0.588902
-0.910333 0.298654 1.7611 102 100 98 0.49843 -0.733569 -0.462
-0.910333 0.301669 1.76126 60 85 98 0.797819 0.13817 -0.58685
-0.910333 0.31976 1.76047 57 81 94 0.816375 0.153723 -0.556687
-0.9435 0.43735 1.76133 52 72 83 0.859942 0.237277 -0.451885
-0.907318 0.31976 1.76129 119 118 113 0.278746 -0.823781 -0.493646
-0.946515 0.440365 1.76149 114 115 113 0.325615 -0.84286 -0.428441
-0.913348 0.307699 1.7587 114 115 113 0.350182 -0.851332 -0.390648
-0.913348 0.322775 1.76048 121 131 123 0.801715 -0.305189 -0.51392
-0.910333 0.304684 1.7614 102 107 111 0.327839 -0.815638 -0.476713
-0.913348 0.32579 1.75978 50 76 93 -0.091984 0.864649 -0.493883
-0.910333 0.322775 1.75979 109 122 119 0.811014 -0.294485 -0.505506
-0.910333 0.307699 1.76083 98 108 113 0.240579 -0.627393 -0.740607
-0.907318 0.322775 1.76047 125 116 108 0.001131 -0.984919 -0.173011
-0.916364 0.310714 1.75901 94 106 113 0.216184 -0.623668 -0.751201
-0.913348 0.310714 1.75943 53 77 94 0.076914 0.744474 -0.663206
-0.910333 0.32579 1.75882 61 85 100 -0.09794 0.630034 -0.770367
-0.907318 0.32579 1.75931 51 77 94 -0.135545 0.612186 -0.77901
-0.910333 0.310714 1.76157 102 111 115 0.288309 -0.590954 -0.753426
-0.904303 0.322775 1.76116 89 105 113 0.260165 -0.59759 -0.758419
-0.904303 0.32579 1.75997 97 110 115 0.442761 -0.465635 -0.766255
-0.901288 0.32579 1.76103 75 100 114 0.630757 -0.240663 -0.737718
-0.916364 0.328805 1.76067 52 79 95 -0.178524 0.611864 -0.770552
-0.892243 0.364987 1.76098 48 75 92 -0.169421 0.660895 -0.731105
-0.913348 0.328805 1.75883 50 78 94 0.152067 0.627839 -0.763344
-0.94953 0.274533 1.75933 67 97 114 0.584399 0.224769 -0.779716
-0.901288 0.328805 1.75997 52 82 100 0.377468 0.405897 -0.832325
-0.898273 0.328805 1.76146 144 118 104 0.480147 -0.37095 -0.794893
-0.898273 0.33182 1.76014 144 118 104 0.232062 -0.82528 -0.51484
-0.940485 0.277548 1.76015 135 116 104 0.175279 -0.893776 -0.412846
-0.931439 0.280563 1.76064 49 78 95 0.114351 0.696503 -0.708384
-0.919379 0.281898 1.76472 49 78 95 -0.032301 0.62214 -0.782239
-0.905146 0.307699 1.76472 49 78 95 -0.028821 0.531135 -0.846797
-0.905302 0.310714 1.76472 134 140 128 0.634567 -0.421379 -0.647892
-0.917312 0.283578 1.76472 52 84 103 0.152437 0.190867 -0.969707
-0.904303 0.313465 1.76472 128 135 124 0.647425 -0.427733 -0.630782
-0.916364 0.285009 1.76472 143 110 96 0.256295 -0.90655 -0.33538
-0.904157 0.313729 1.76472 123 133 127 0.696178 -0.408446 -0.590346
-0.895258 0.327478 1.76472 114 127 122 0.745659 -0.338054 -0.574206
-0.894391 0.328805 1.76472 143 110 96 0.317295 -0.901707 -0.293682
-0.892731 0.33182 1.76472 109 122 119 0.771266 -0.287833 -0.567715
-0.892243 0.333321 1.76472 143 110 96 0.300961 -0.936169 -0.181686
-0.89185 0.334835 1.76472 102 118 118 0.818335 -0.232709 -0.525522
-0.901288 0.316658 1.76472 106 100 93 0.27911 -0.910396 -0.305414
-0.910333 0.294309 1.76472 114 103 95 0.304391 -0.879856 -0.364966
-0.901212 0.316744 1.76472 92 112 117 0.88463 -0.173428 -0.432842
-0.907318 0.295136 1.76472 107 98 91 0.357239 -0.767822 -0.531818
-0.890965 0.33785 1.76472 92 112 117 0.903235 -0.11623 -0.413107
-0.899244 0.31976 1.76472 103 108 108 0.313059 -0.819617 -0.479814
-0.890106 0.340865 1.76472 101 100 98 0.343294 -0.775231 -0.530251
-0.889228 0.343395 1.76472 83 103 110 0.911128 -0.016994 -0.411772
-0.898273 0.322298 1.76472 56 83 98 0.915152 0.138321 -0.378635
-0.889083 0.343881 1.76472 110 110 108 0.377112 -0.81628 -0.437577
-0.898165 0.322775 1.76472 103 108 108 0.318015 -0.78465 -0.532156
-0.888842 0.346896 1.76472 107 107 106 0.373788 -0.831165 -0.41164
-0.896542 0.32579 1.76472 103 109 108 0.372089 -0.758802 -0.534574
-0.888928 0.349911 1.76472 99 98 98 0.360669 -0.847805 -0.388773
-0.906813 0.295639 1.76472 99 98 98 0.340246 -0.838856 -0.424916
-0.889189 0.352926 1.76472 101 109 109 0.411974 -0.770212 -0.486878
-0.889149 0.355941 1.76472 115 116 113 0.329326 -0.800247 -0.501148
-0.905039 0.298654 1.76472 115 116 113 0.271419 -0.832869 -0.48235
-0.904699 0.301669 1.76472 135 121 106 0.225802 -0.94061 -0.253508
-0.889228 0.358557 1.76472 109 110 109 0.212824 -0.846769 -0.487533
-0.889251 0.358956 1.76472 99 106 108 0.506797 -0.687438 -0.520178
-0.890119 0.361971 1.76472 109 113 111 0.201986 -0.821613 -0.533061
-0.94953 0.271614 1.76472 91 105 111 0.531886 -0.633198 -0.562279
-0.946515 0.273511 1.76472 91 104 111 0.529028 -0.593255 -0.606777
-0.9435 0.274209 1.76472 82 103 115 0.367493 -0.563489 -0.739885
-0.942018 0.274533 1.76472 82 104 114 0.389447 -0.576776 -0.718095
-0.940485 0.275165 1.76472 92 107 113 0.380451 -0.493776 -0.781948
-0.937469 0.276598 1.76472 54 81 98 0.211545 0.883164 -0.418652
-0.935264 0.277548 1.76472 53 77 93 0.919346 0.294939 -0.26041
-0.934454 0.278001 1.76472 70 98 115 0.277234 -0.512178 -0.812906
-0.931439 0.279256 1.76472 71 99 114 0.276322 -0.64688 -0.710769
-0.928424 0.279468 1.76472 71 99 114 0.614302 -0.285611 -0.735567
-0.925409 0.279942 1.76472 66 96 113 0.155647 0.074853 -0.984973
-0.922781 0.280563 1.76472 144 118 104 0.472033 -0.410393 -0.780233
-0.922394 0.280668 1.76472 114 103 95 0.337173 -0.766301 -0.546897
-0.919379 0.283578 1.76199 49 78 95 0.42429 0.499646 -0.755203
-0.907318 0.307699 1.76359 49 78 95 0.113253 0.358863 -0.926494
-0.916364 0.286593 1.76404 110 110 108 0.319166 -0.842288 -0.434378
-0.907318 0.310714 1.76344 136 141 128 0.654389 -0.450206 -0.607527
-0.907318 0.313729 1.76328 123 133 127 0.734646 -0.371414 -0.567756
-0.904303 0.313729 1.76464 115 116 113 0.371704 -0.842215 -0.390524
-0.895258 0.328805 1.76388 102 118 118 0.824406 -0.238847 -0.513135
-0.895258 0.33182 1.76258 109 113 111 0.249885 -0.755943 -0.605068
-0.892243 0.334835 1.76418 49 78 95 0.012113 0.124432 -0.992154
-0.892243 0.33785 1.76275 103 120 119 0.864283 -0.137995 -0.483708
-0.889228 0.343881 1.76449 107 122 120 0.873968 -0.012045 -0.485835
-0.889228 0.346896 1.76395 107 122 120 0.855307 0.132144 -0.500986
-0.889228 0.349911 1.76409 110 113 112 0.282783 -0.733318 -0.618287
-0.946515 0.274533 1.76253 101 109 109 0.490725 -0.674957 -0.551019
-0.9435 0.274533 1.76352 91 105 111 0.55896 -0.565715 -0.606243
-0.919379 0.316744 1.76336 82 103 115 0.486357 -0.310072 -0.816891
-0.889228 0.352926 1.76462 82 104 114 0.311788 -0.347938 -0.884153
-0.916364 0.316744 1.7618 67 97 113 0.283837 0.129259 -0.95012
-0.889228 0.355941 1.76451 70 98 113 0.254123 -0.010839 -0.967111
-0.919379 0.31976 1.76395 70 98 115 0.154614 0.069635 -0.985518
-0.910333 0.295639 1.76339 71 99 114 0.117869 -0.244805 -0.962381
-0.916364 0.31976 1.76235 142 117 103 0.391107 -0.531839 -0.751121
-0.907318 0.295639 1.76444 142 117 103 0.420426 -0.736983 -0.529243
-0.937469 0.277548 1.76263 47 76 94 -0.087214 0.436071 -0.895676
-0.907318 0.316744 1.76272 124 133 127 0.698284 -0.358136 -0.619788
-0.907318 0.298654 1.76311 47 76 94 -0.065224 0.37404 -0.925116
-0.919379 0.322775 1.76394 48 74 91 -0.128053 0.412304 -0.902002
-0.916364 0.322775 1.76247 49 74 90 -0.188227 0.466862 -0.864066
-0.928424 0.280563 1.76286 118 128 123 0.710751 -0.351291 -0.609449
-0.925409 0.280563 1.76351 114 127 122 0.752503 -0.32066 -0.575254
-0.907318 0.304684 1.76369 106 122 124 0.802647 -0.274879 -0.529339
-0.904303 0.316744 1.76386 107 123 124 0.847896 -0.189917 -0.49498
-0.901288 0.316744 1.76467 143 108 94 0.367214 -0.732797 -0.572855
-0.904303 0.31976 1.76249 96 115 118 0.888413 -0.123667 -0.442074
-0.901288 0.31976 1.7636 114 103 95 0.299022 -0.749953 -0.590048
-0.901288 0.322775 1.7623 74 94 106 0.682324 -0.442092 -0.582227
-0.898273 0.322775 1.76459 86 108 116 0.91495 -0.100137 -0.390946
-0.898273 0.32579 1.7631 114 103 95 0.215436 -0.92024 -0.326721
-0.919379 0.280671 1.76773 118 107 99 0.293169 -0.89439 -0.337814
-0.916364 0.282115 1.76773 74 94 106 0.698089 -0.42615 -0.575385
-0.913348 0.283405 1.76773 68 92 104 0.941125 0.006283 -0.338001
-0.912986 0.283578 1.76773 74 95 107 0.734082 -0.314607 -0.601786
-0.910333 0.285354 1.76773 59 84 98 0.942318 0.242152 -0.231082
-0.900955 0.307699 1.76773 58 85 100 0.587785 -0.032112 -0.808379
-0.899254 0.310714 1.76773 106 98 91 0.343472 -0.882132 -0.322288
-0.899364 0.313729 1.76773 107 98 91 0.329611 -0.866187 -0.375603
-0.90936 0.286593 1.76773 89 90 89 0.347967 -0.811923 -0.468722
-0.90829 0.289608 1.76773 58 82 97 0.448608 -0.0308 -0.893198
-0.893628 0.32579 1.76773 89 89 89 0.353838 -0.795736 -0.491531
-0.907318 0.290799 1.76773 99 99 99 0.329326 -0.800247 -0.501148
-0.892488 0.328805 1.76773 64 82 93 0.18452 0.298284 -0.936472
-0.892243 0.330893 1.76773 115 116 113 0.262487 -0.818525 -0.510996
-0.89212 0.33182 1.76773 106 108 106 0.378548 -0.840345 -0.387972
-0.898273 0.316013 1.76773 116 117 115 0.276265 -0.816308 -0.507266
-0.890718 0.334835 1.76773 114 115 112 0.239591 -0.846963 -0.474605
-0.889228 0.337239 1.76773 106 108 106 0.371694 -0.850698 -0.371694
-0.897771 0.316744 1.76773 118 115 111 0.273249 -0.888433 -0.368812
-0.888968 0.33785 1.76773 103 108 108 0.365373 -0.842083 -0.396735
-0.896346 0.31976 1.76773 118 115 111 0.303237 -0.870092 -0.38857
-0.888434 0.340865 1.76773 101 106 107 0.399884 -0.801374 -0.444851
-0.896039 0.322775 1.76773 98 105 108 0.420193 -0.760272 -0.495403
-0.888047 0.343881 1.76773 100 106 108 0.488903 -0.663631 -0.566187
-0.895258 0.323753 1.76773 93 104 110 0.340489 -0.711931 -0.614183
-0.887854 0.346896 1.76773 96 107 112 0.23716 -0.714622 -0.658081
-0.888062 0.349911 1.76773 97 110 114 0.253184 -0.599149 -0.759551
-0.905426 0.292623 1.76773 92 107 113 0.094404 -0.474837 -0.874996
-0.888328 0.352926 1.76773 54 75 89 0.931428 0.264305 -0.250171
-0.904303 0.294245 1.76773 63 76 85 0.927345 0.248523 -0.279765
-0.888177 0.355941 1.76773 87 107 116 0.496573 -0.336903 -0.799945
-0.903608 0.295639 1.76773 94 111 116 0.600957 -0.434487 -0.670874
-0.889228 0.360819 1.76773 54 81 98 -0.114105 0.712785 -0.692039
-0.902525 0.298654 1.76773 54 81 98 -0.219227 0.392843 -0.893092
-0.88967 0.361971 1.76773 49 78 95 -0.046363 0.571808 -0.819076
-0.902288 0.301669 1.76773 49 78 95 0.026227 0.561814 -0.826847
-0.901129 0.304684 1.76773 49 81 98 -0.136466 0.523853 -0.840806
-0.94953 0.26917 1.76773 124 132 124 0.701624 -0.379567 -0.603036
-0.947127 0.271518 1.76773 49 79 96 0.385561 0.221368 -0.895734
-0.946515 0.27229 1.76773 49 79 96 0.037245 0.335208 -0.941408
-0.9435 0.274314 1.76773 114 127 122 0.77855 -0.28383 -0.559732
-0.942629 0.274533 1.76773 56 85 103 0.501999 -0.020296 -0.86463
-0.940485 0.275004 1.76773 112 126 123 0.80174 -0.257869 -0.539182
-0.937469 0.275881 1.76773 56 85 103 0.295575 0.062698 -0.95326
-0.934454 0.276728 1.76773 49 74 90 -0.200318 0.364608 -0.909359
-0.931439 0.277493 1.76773 53 76 89 0.11 0.179214 -0.977641
-0.931223 0.277548 1.76773 74 94 106 0.698823 -0.297201 -0.650629
-0.928424 0.278189 1.76773 143 108 94 0.329285 -0.895477 -0.299486
-0.925409 0.278478 1.76773 106 98 91 0.379047 -0.858657 -0.34501
-0.922394 0.279851 1.76773 89 89 89 0.351721 -0.831198 -0.430583
-0.919816 0.280563 1.76773 99 99 99 0.348428 -0.827714 -0.439871
-0.916364 0.283578 1.76575 114 115 112 0.21263 -0.818396 -0.53387
-0.904303 0.307699 1.76511 118 115 111 0.173414 -0.852247 -0.493562
-0.904303 0.310714 1.76529 106 108 106 0.38068 -0.829283 -0.409113
-0.913348 0.283578 1.76753 98 105 108 0.506209 -0.693322 -0.512891
-0.901288 0.310714 1.76727 93 104 110 0.362541 -0.697195 -0.618453
-0.913348 0.286593 1.76625 96 107 112 0.357308 -0.595513 -0.71951
-0.901288 0.313729 1.76691 92 107 113 0.310707 -0.493662 -0.812255
-0.910333 0.286593 1.76713 87 107 116 0.326266 -0.507702 -0.797363
-0.910333 0.289608 1.76661 54 81 98 -0.055891 0.74092 -0.669264
-0.895258 0.32579 1.76593 93 92 94 0.316707 -0.817767 -0.480576
-0.94953 0.271518 1.76485 103 111 111 0.145238 -0.777097 -0.612394
-0.898273 0.316744 1.76752 93 92 94 0.335697 -0.841585 -0.423134
-0.934454 0.277548 1.76562 103 111 111 0.498556 -0.659705 -0.562344
-0.898273 0.31976 1.7656 104 102 99 0.334574 -0.830937 -0.444528
-0.910333 0.292623 1.76596 100 117 118 0.693084 -0.329499 -0.641143
-0.931439 0.277548 1.76764 104 100 96 0.295229 -0.876602 -0.380012
-0.907318 0.292623 1.76635 103 111 113 0.691209 -0.487026 -0.533888
-0.904303 0.295639 1.76686 100 117 118 0.703082 -0.332868 -0.62839
-0.922394 0.280563 1.76507 120 118 112 0.303511 -0.89259 -0.333413
-0.892243 0.33182 1.76695 84 97 106 0.7821 -0.35638 -0.511187
-0.904303 0.298654 1.76553 105 122 120 0.742782 -0.285931 -0.605407
-0.904303 0.301669 1.76517 119 115 108 0.302231 -0.876318 -0.375131
-0.889228 0.33785 1.76731 103 119 120 0.817059 -0.212283 -0.536052
-0.889228 0.340865 1.7662 92 112 116 0.873261 -0.121884 -0.471762
-0.889228 0.358956 1.76482 90 110 115 0.880923 -0.073526 -0.467513
-0.931439 0.276676 1.77075 66 93 106 0.894906 -0.090184 -0.437047
-0.895258 0.312237 1.77075 66 93 106 0.903341 -0.041487 -0.426912
-0.894665 0.313729 1.77075 59 85 98 0.918053 0.102921 -0.382865
-0.893443 0.316744 1.77075 55 79 93 0.916776 0.282419 -0.282419
-0.893353 0.31976 1.77075 55 79 93 0.929314 0.239047 -0.281482
-0.892554 0.322775 1.77075 126 122 106 -0.450488 -0.227504 -0.863309
-0.892243 0.323754 1.77075 126 122 106 -0.478154 -0.359815 -0.801188
-0.891705 0.32579 1.77075 95 105 110 0.371694 -0.850698 -0.371694
-0.9435 0.273038 1.77075 137 136 118 -0.123729 -0.38787 -0.913372
-0.937469 0.274797 1.77075 137 136 118 -0.327479 -0.309535 -0.892718
-0.934454 0.275719 1.77075 106 108 104 0.36276 -0.851629 -0.378329
-0.890855 0.328805 1.77075 139 141 126 0.188227 -0.466862 -0.864066
-0.890001 0.33182 1.77075 102 106 104 0.337839 -0.859254 -0.384119
-0.889228 0.333931 1.77075 106 107 106 0.300906 -0.869114 -0.392552
-0.888931 0.334835 1.77075 106 107 106 0.288618 -0.850419 -0.439872
-0.887862 0.33785 1.77075 125 130 119 0.247137 -0.441207 -0.862705
-0.88699 0.340865 1.77075 106 107 106 0.276122 -0.78103 -0.560133
-0.886996 0.343881 1.77075 125 132 124 0.41942 -0.41942 -0.805093
-0.88677 0.346896 1.77075 118 105 97 0.246174 -0.868407 -0.430428
-0.887142 0.349911 1.77075 106 108 107 0.233861 -0.797605 -0.556
-0.887342 0.352926 1.77075 106 107 107 0.301172 -0.812061 -0.499851
-0.929063 0.277548 1.77075 122 108 99 0.258661 -0.883635 -0.390235
-0.928424 0.277841 1.77075 122 107 99 0.359048 -0.838823 -0.40922
-0.925409 0.278676 1.77075 125 132 124 0.433833 -0.417706 -0.798318
-0.922394 0.279418 1.77075 115 127 125 0.458954 -0.478694 -0.748474
-0.919379 0.280379 1.77075 97 104 108 0.726903 -0.572662 -0.37904
-0.918721 0.280563 1.77075 131 138 129 0.522369 -0.449404 -0.724684
-0.916364 0.281247 1.77075 132 141 133 0.607791 -0.332259 -0.721245
-0.913348 0.282647 1.77075 68 91 104 0.721242 -0.166206 -0.672448
-0.910711 0.283578 1.77075 60 87 104 0.719505 -0.073833 -0.690551
-0.910333 0.283693 1.77075 132 140 133 0.665757 -0.336948 -0.665757
-0.907907 0.286593 1.77075 56 72 83 0.922642 0.218183 -0.318005
-0.907318 0.287821 1.77075 61 84 99 0.661025 -0.220342 -0.717283
-0.906161 0.289608 1.77075 68 88 101 0.670274 0.038261 -0.741127
-0.904303 0.29198 1.77075 68 88 101 0.27486 0.219051 -0.936199
-0.903789 0.292623 1.77075 56 87 105 0.639429 -0.067535 -0.765878
-0.901609 0.295639 1.77075 74 84 87 0.045844 0.368062 -0.92867
-0.901288 0.296135 1.77075 93 92 94 0.293734 -0.812087 -0.504217
-0.900212 0.298654 1.77075 119 115 108 0.347877 -0.876528 -0.332686
-0.899924 0.301669 1.77075 104 111 111 0.307494 -0.626258 -0.716413
-0.899626 0.304684 1.77075 104 111 111 0.24002 -0.625934 -0.742022
-0.898309 0.307699 1.77075 103 111 112 0.139618 -0.644046 -0.752138
-0.89581 0.310714 1.77075 103 111 112 0.064731 -0.671763 -0.737932
-0.919379 0.280563 1.76872 103 111 111 0.325735 -0.633643 -0.701707
-0.895258 0.313729 1.77037 84 97 106 0.715495 -0.361841 -0.59761
-0.907318 0.289608 1.76884 126 122 106 -0.448563 -0.393899 -0.802268
-0.895258 0.316744 1.76899 137 136 118 -0.228043 -0.381053 -0.895989
-0.895258 0.31976 1.76873 100 117 118 0.721561 -0.343678 -0.601029
-0.904303 0.292623 1.76967 139 141 126 0.146975 -0.472938 -0.868751
-0.895258 0.322775 1.76842 105 122 120 0.72392 -0.339998 -0.600284
-0.892243 0.32579 1.76989 135 133 116 -0.312331 -0.430426 -0.846867
-0.901288 0.298654 1.76932 92 112 116 0.899307 -0.113641 -0.422295
-0.901288 0.301669 1.76896 70 98 110 0.912153 -0.086155 -0.400691
-0.892243 0.328805 1.76824 66 94 107 0.912845 -0.052124 -0.404966
-0.898273 0.310714 1.76814 119 117 103 -0.436914 -0.50616 -0.743578
-0.889228 0.334835 1.77027 67 92 104 0.944193 0.110533 -0.310292
-0.898273 0.313729 1.76841 125 130 119 0.260442 -0.476193 -0.839887
-0.931439 0.276481 1.77376 135 139 127 0.343419 -0.49676 -0.797052
-0.928861 0.277548 1.77376 125 132 124 0.426687 -0.515649 -0.742996
-0.895258 0.309251 1.77376 131 138 129 0.575119 -0.416008 -0.704397
-0.894041 0.310714 1.77376 102 106 104 0.310212 -0.879187 -0.361662
-0.928424 0.27769 1.77376 106 107 106 0.361982 -0.808479 -0.464038
-0.892486 0.313729 1.77376 97 104 108 0.767923 -0.33003 -0.548976
-0.925409 0.278477 1.77376 60 87 104 0.696904 -0.126845 -0.705858
-0.922394 0.279349 1.77376 52 82 100 0.756757 -0.064619 -0.650495
-0.892243 0.315187 1.77376 63 83 97 0.661775 0.076749 -0.745764
-0.919379 0.279936 1.77376 118 105 97 0.239542 -0.866268 -0.438407
-0.892076 0.316744 1.77376 122 108 99 0.325366 -0.780558 -0.533729
-0.89162 0.31976 1.77376 61 84 99 0.529378 0.225561 -0.817851
-0.917605 0.280563 1.77376 63 75 83 0.178463 0.467544 -0.865768
-0.890591 0.322775 1.77376 95 103 109 0.462168 -0.685744 -0.562277
-0.916364 0.28125 1.77376 98 93 92 0.284985 -0.798273 -0.530607
-0.889305 0.32579 1.77376 98 93 92 0.308304 -0.850548 -0.426048
-0.913348 0.282432 1.77376 95 103 109 0.743128 -0.380547 -0.550405
-0.889228 0.325983 1.77376 107 122 122 0.615596 -0.372641 -0.694392
-0.910333 0.283322 1.77376 112 106 97 0.406006 -0.807199 -0.428473
-0.888194 0.328805 1.77376 107 122 122 0.681391 -0.298008 -0.668504
-0.909847 0.283578 1.77376 107 122 122 0.685279 -0.287271 -0.66923
-0.887434 0.33182 1.77376 121 116 109 0.40842 -0.834187 -0.370574
-0.886943 0.334835 1.77376 125 116 106 0.218903 -0.894711 -0.389324
-0.88657 0.33785 1.77376 100 117 119 0.743796 -0.246884 -0.621141
-0.907318 0.286079 1.77376 123 116 107 0.289528 -0.862456 -0.415143
-0.886212 0.338792 1.77376 100 117 118 0.797182 -0.254287 -0.547575
-0.885599 0.340865 1.77376 90 109 113 0.799333 -0.22024 -0.559071
-0.88544 0.343881 1.77376 88 108 114 0.839208 -0.078099 -0.538173
-0.886069 0.346896 1.77376 122 107 99 0.278282 -0.831738 -0.480387
-0.935521 0.274533 1.77376 122 107 99 0.264938 -0.721838 -0.639342
-0.934454 0.275162 1.77376 95 105 110 0.341079 -0.831478 -0.43853
-0.906994 0.286593 1.77376 95 105 110 0.36786 -0.832027 -0.415224
-0.904618 0.289608 1.77376 111 115 118 0.676057 -0.63329 -0.376684
-0.904303 0.289899 1.77376 108 108 104 0.313468 -0.853929 -0.415383
-0.901647 0.292623 1.77376 80 80 83 0.665283 -0.712244 -0.223848
-0.901288 0.293072 1.77376 106 107 106 0.300466 -0.870893 -0.388928
-0.899641 0.295639 1.77376 111 107 105 0.312809 -0.899882 -0.303914
-0.898837 0.298654 1.77376 65 85 97 0.283206 -0.843428 -0.456534
-0.898565 0.301669 1.77376 71 94 108 0.446273 -0.542496 -0.711715
-0.898273 0.303696 1.77376 76 99 111 0.878727 -0.028346 -0.476483
-0.898049 0.304684 1.77376 68 94 109 0.552024 -0.115066 -0.825851
-0.896516 0.307699 1.77376 68 94 108 0.903097 -0.061112 -0.425067
-0.895258 0.310714 1.77143 106 107 107 0.262035 -0.9164 -0.302571
-0.892243 0.316744 1.7732 60 87 101 0.926619 -0.001275 -0.376001
-0.910333 0.283578 1.77137 106 107 107 0.183229 -0.916146 -0.356516
-0.892243 0.31976 1.77254 106 107 107 0.227219 -0.865239 -0.446915
-0.907318 0.286593 1.77246 48 76 91 0.909478 0.178469 -0.375499
-0.892243 0.322775 1.77115 65 92 108 0.508239 0.059875 -0.859132
-0.889228 0.328805 1.77264 56 87 105 0.603225 -0.018027 -0.797367
-0.901288 0.295639 1.77118 105 109 109 0.280936 -0.836599 -0.470296
-0.889228 0.33182 1.77155 53 88 109 0.625863 -0.004127 -0.779922
-0.886212 0.340865 1.77222 73 91 100 0.536374 0.023321 -0.843658
-0.898273 0.304684 1.77339 73 91 100 0.540624 -0.081308 -0.837326
-0.886212 0.343881 1.77239 102 103 95 -0.379236 0.351373 -0.855989
-0.898273 0.307699 1.77082 102 103 95 -0.338797 0.095077 -0.936043
-0.886212 0.346896 1.77319 102 102 94 -0.466829 0.036534 -0.883592
-0.886212 0.349911 1.77257 94 105 107 0.454898 -0.191146 -0.869788
-0.924543 0.277548 1.77678 101 112 113 0.344629 -0.329447 -0.879031
-0.895258 0.303838 1.77678 118 114 100 -0.553146 -0.066491 -0.830427
-0.895172 0.304684 1.77678 118 114 100 -0.539375 -0.195998 -0.818938
-0.893659 0.307699 1.77678 116 126 122 0.317871 -0.341975 -0.884314
-0.922394 0.278798 1.77678 112 124 122 0.286829 -0.367921 -0.884513
-0.892297 0.310714 1.77678 104 119 122 0.325014 -0.367739 -0.871283
-0.892243 0.310875 1.77678 112 126 125 0.419495 -0.350364 -0.837418
-0.919379 0.280347 1.77678 116 126 122 0.487849 -0.353491 -0.798153
-0.891212 0.313729 1.77678 117 107 93 -0.453871 -0.30414 -0.837556
-0.918511 0.280563 1.77678 117 107 93 -0.409167 -0.313438 -0.856936
-0.916364 0.28118 1.77678 109 123 124 0.517637 -0.378086 -0.767531
-0.913348 0.282728 1.77678 115 127 125 0.588998 -0.335875 -0.73503
-0.910333 0.283348 1.77678 110 124 125 0.593076 -0.32805 -0.735285
-0.890287 0.316744 1.77678 93 103 109 0.494375 -0.672014 -0.551353
-0.909906 0.283578 1.77678 95 103 109 0.728072 -0.399371 -0.557148
-0.907318 0.286458 1.77678 98 93 92 0.341259 -0.878173 -0.335192
-0.889228 0.319746 1.77678 107 122 122 0.639226 -0.330185 -0.694528
-0.889223 0.31976 1.77678 107 122 122 0.663782 -0.297336 -0.686283
-0.907191 0.286593 1.77678 100 117 119 0.738552 -0.299586 -0.603978
-0.887477 0.322775 1.77678 98 115 117 0.783743 -0.225035 -0.578883
-0.886212 0.325461 1.77678 98 115 119 0.830325 -0.114879 -0.54531
-0.904303 0.289206 1.77678 102 103 95 -0.293335 0.387567 -0.873926
-0.886109 0.32579 1.77678 102 103 95 0.197749 0.200404 -0.959549
-0.903716 0.289608 1.77678 102 103 95 -0.093215 0.126253 -0.987609
-0.885379 0.328805 1.77678 102 102 94 -0.169687 -0.101324 -0.980276
-0.901288 0.291481 1.77678 104 110 107 0.343255 0.003772 -0.939235
-0.88417 0.33182 1.77678 80 80 83 0.610681 -0.556548 -0.563315
-0.883197 0.333903 1.77678 104 110 107 0.182944 -0.094542 -0.978567
-0.900535 0.292623 1.77678 60 87 104 0.503393 -0.290117 -0.813897
-0.883197 0.335524 1.77678 56 87 105 0.580815 -0.023565 -0.813695
-0.898908 0.295639 1.77678 71 94 108 0.514193 -0.03428 -0.856989
-0.898273 0.296692 1.77678 60 90 108 0.490735 0.045362 -0.870127
-0.930018 0.274533 1.77678 116 121 116 0.153509 -0.226983 -0.961724
-0.928424 0.275485 1.77678 101 112 113 0.256323 -0.261987 -0.930409
-0.925409 0.277075 1.77678 63 83 97 0.571217 0.14095 -0.808606
-0.897029 0.298654 1.77678 118 114 100 -0.39653 -0.152074 -0.905338
-0.895466 0.301669 1.77678 53 85 104 0.615253 -0.100837 -0.781854
-0.884287 0.33785 1.77678 118 114 100 -0.438902 -0.256659 -0.861099
-0.883126 0.334835 1.77678 127 128 116 0.032617 -0.230735 -0.97247
-0.884547 0.340865 1.77678 60 88 105 0.618159 0.026512 -0.785606
-0.884227 0.343881 1.77678 121 127 119 0.21761 -0.31717 -0.923065
-0.928424 0.277548 1.77403 63 75 82 -0.1808 0.400653 -0.898214
-0.895258 0.304684 1.7767 72 81 84 0.379014 0.207659 -0.901791
-0.895258 0.307699 1.77525 124 127 117 -0.039274 -0.305322 -0.951439
-0.925409 0.277548 1.77593 124 127 117 0.179544 -0.389251 -0.903464
-0.892243 0.313729 1.77454 69 90 100 0.540831 0.120994 -0.832384
-0.904303 0.289608 1.77475 112 124 122 0.226287 -0.363518 -0.903686
-0.889228 0.31976 1.77677 124 131 124 0.292019 -0.376749 -0.879082
-0.901288 0.292623 1.77428 112 126 125 0.362081 -0.32847 -0.872356
-0.889228 0.322775 1.77529 117 107 93 -0.472577 -0.260148 -0.842018
-0.889228 0.32579 1.77384 124 117 101 -0.502039 -0.254881 -0.826433
-0.898273 0.298654 1.77486 112 106 97 0.38751 -0.839343 -0.381234
-0.886212 0.32579 1.77667 118 129 124 0.407215 -0.363192 -0.838014
-0.898273 0.301669 1.77411 109 123 124 0.483469 -0.349438 -0.80259
-0.886212 0.328805 1.77578 120 130 125 0.498112 -0.384536 -0.777185
-0.886212 0.33182 1.77504 95 105 110 0.349902 -0.83945 -0.415803
-0.886212 0.334835 1.7746 111 107 105 0.236081 -0.870643 -0.431562
-0.883197 0.334835 1.77671 112 115 114 0.419363 -0.801771 -0.42579
-0.886212 0.33785 1.77444 49 91 114 0.457043 0.044755 -0.888318
-0.895258 0.298324 1.77979 49 91 114 0.486344 -0.062352 -0.87154
-0.894913 0.298654 1.77979 112 115 114 0.644811 -0.547164 -0.533695
-0.893365 0.301669 1.77979 63 94 112 0.504284 -0.17107 -0.846424
-0.92136 0.277548 1.77979 89 95 101 0.651465 -0.365936 -0.664593
-0.919379 0.279479 1.77979 71 79 87 0.603025 -0.052499 -0.795993
-0.916597 0.280563 1.77979 58 94 114 0.42363 -0.398053 -0.81369
-0.892243 0.303917 1.77979 87 109 119 0.633454 -0.439574 -0.636797
-0.891792 0.304684 1.77979 87 109 119 0.762773 -0.340265 -0.549906
-0.890195 0.307699 1.77979 94 114 121 0.783729 -0.358874 -0.50693
-0.889228 0.310305 1.77979 97 116 120 0.786666 -0.314347 -0.531359
-0.916364 0.280662 1.77979 85 109 118 0.889571 -0.250981 -0.381669
-0.913348 0.281806 1.77979 69 100 116 0.470533 -0.444301 -0.762362
-0.910333 0.282892 1.77979 91 107 114 0.055266 -0.596586 -0.800644
-0.909295 0.283578 1.77979 75 104 119 0.585637 -0.353992 -0.729191
-0.907318 0.285347 1.77979 91 107 114 0.211266 -0.578283 -0.788007
-0.90601 0.286593 1.77979 83 107 115 0.818031 -0.293612 -0.494587
-0.886212 0.319442 1.77979 78 107 121 0.570649 -0.337863 -0.748471
-0.904303 0.288838 1.77979 82 105 115 0.806549 -0.239952 -0.540279
-0.903777 0.289608 1.77979 85 106 115 0.852813 -0.248674 -0.459207
-0.901573 0.292623 1.77979 88 110 120 0.647892 -0.247492 -0.720405
-0.883628 0.322775 1.77979 80 99 110 0.941631 -0.083202 -0.326203
-0.883746 0.32579 1.77979 86 109 119 0.719024 -0.365245 -0.59127
-0.883808 0.328805 1.77979 64 84 95 0.93457 -0.021794 -0.355111
-0.883197 0.329997 1.77979 86 109 119 0.662629 -0.435633 -0.609218
-0.901288 0.292928 1.77979 64 84 95 0.949885 0.057841 -0.307202
-0.882449 0.33182 1.77979 85 103 111 0.57621 -0.407805 -0.708292
-0.882479 0.334835 1.77979 59 81 93 0.959243 0.051545 -0.277841
-0.882049 0.33785 1.77979 55 74 85 0.953915 -0.011106 -0.299872
-0.922394 0.276085 1.77979 88 107 116 0.606027 -0.25343 -0.753992
-0.898273 0.29543 1.77979 65 93 111 0.632463 -0.058535 -0.772376
-0.898059 0.295639 1.77979 57 89 111 0.468658 0.073706 -0.880299
-0.922394 0.277548 1.77853 120 100 92 0.476477 -0.764655 -0.433905
-0.901288 0.292623 1.7795 121 108 98 0.389695 -0.831455 -0.396006
-0.898273 0.295639 1.77898 130 114 100 0.336132 -0.931565 -0.138569
-0.895258 0.298654 1.77929 136 114 100 0.326648 -0.900129 -0.288218
-0.895258 0.301669 1.77704 136 115 101 0.354463 -0.90585 -0.231932
-0.892243 0.304684 1.77934 136 114 100 0.390567 -0.865373 -0.313985
-0.892243 0.307699 1.7778 111 108 102 0.369489 -0.874306 -0.31475
-0.892243 0.310714 1.77683 110 108 104 0.338777 -0.869171 -0.360238
-0.889228 0.310714 1.77961 108 108 104 0.232478 -0.889931 -0.392399
-0.886212 0.31976 1.7796 110 108 104 0.099043 -0.894175 -0.436625
-0.886212 0.322775 1.77766 110 109 104 0.235549 -0.890345 -0.389618
-0.883197 0.33182 1.77782 112 110 106 0.221368 -0.895734 -0.385561
-0.883197 0.33785 1.77781 108 109 106 0.327712 -0.835745 -0.440608
-0.883197 0.340865 1.77862 112 115 114 0.572097 -0.682179 -0.455342
-0.896841 0.295639 1.78281 49 91 114 0.544916 -0.009512 -0.838437
-0.895258 0.296347 1.78281 89 95 101 0.827735 -0.127457 -0.546452
-0.893523 0.298654 1.78281 49 91 114 0.560642 -0.009549 -0.828004
-0.892243 0.300455 1.78281 63 94 112 0.489965 -0.119258 -0.863546
-0.89139 0.301669 1.78281 63 94 112 0.378249 -0.204341 -0.902869
-0.889729 0.304684 1.78281 87 109 119 0.605283 -0.365795 -0.706984
-0.913348 0.279869 1.78281 94 114 121 0.63192 -0.311919 -0.709495
-0.882654 0.32579 1.78281 97 116 120 0.739648 -0.272 -0.615578
-0.883197 0.334805 1.78281 96 115 119 0.785306 -0.241993 -0.569854
-0.912519 0.280563 1.78281 85 106 115 0.834268 -0.136838 -0.534108
-0.883233 0.334835 1.78281 81 101 110 0.868403 -0.031355 -0.494867
-0.910333 0.281811 1.78281 70 92 104 0.877339 0.0339 -0.478672
-0.883197 0.334911 1.78281 121 108 98 0.190967 -0.890694 -0.412547
-0.907992 0.283578 1.78281 130 114 100 0.200371 -0.890698 -0.408054
-0.907318 0.284196 1.78281 88 86 80 -0.353965 0.268065 -0.896019
-0.882463 0.328805 1.78281 54 79 93 0.924606 -0.006412 -0.380871
-0.882579 0.33182 1.78281 88 86 80 -0.481131 0.166262 -0.860738
-0.880945 0.33785 1.78281 50 76 90 0.946656 0.00622 -0.322186
-0.90487 0.286593 1.78281 88 86 80 -0.339001 0.123892 -0.932593
-0.904303 0.287501 1.78281 91 107 114 0.28372 -0.681248 -0.674836
-0.882119 0.346896 1.78281 88 86 80 -0.479431 0.088575 -0.873098
-0.903142 0.289608 1.78281 91 107 114 0.411521 -0.367373 -0.834079
-0.901288 0.292135 1.78281 136 114 100 0.337037 -0.852687 -0.399163
-0.900742 0.292623 1.78281 82 102 111 0.382938 -0.292123 -0.876369
-0.898273 0.294976 1.78281 72 95 109 0.51549 -0.252327 -0.818902
-0.892243 0.301669 1.78156 102 92 81 -0.348394 -0.098196 -0.93219
-0.883197 0.32579 1.78101 62 92 110 0.503913 0.065606 -0.861259
-0.883197 0.328805 1.78102 102 92 81 -0.458125 -0.12131 -0.880571
-0.883197 0.334835 1.78266 110 108 104 0.138113 -0.895598 -0.422882
-0.919379 0.277548 1.78118 110 109 104 0.168777 -0.867368 -0.468173
-0.916364 0.280563 1.77995 51 86 107 0.521643 0.077752 -0.849614
-0.913348 0.280563 1.78212 75 101 113 0.301171 -0.321942 -0.89758
-0.901288 0.292623 1.78173 69 100 116 0.251363 -0.326918 -0.911011
-0.895258 0.293688 1.78582 86 108 116 0.324327 -0.388885 -0.862311
-0.893275 0.295639 1.78582 81 108 119 0.388389 -0.341968 -0.855694
-0.892243 0.297107 1.78582 90 112 120 0.52529 -0.342161 -0.7791
-0.89118 0.298654 1.78582 88 110 120 0.574959 -0.341736 -0.743397
-0.907318 0.282566 1.78582 97 115 121 0.581068 -0.38683 -0.716047
-0.904303 0.285939 1.78582 111 113 112 0.393062 -0.872629 -0.289864
-0.903711 0.286593 1.78582 111 113 112 0.421531 -0.828852 -0.367853
-0.901288 0.289369 1.78582 111 113 112 0.381484 -0.86027 -0.338239
-0.901012 0.289608 1.78582 97 101 103 0.399626 -0.735115 -0.547636
-0.898273 0.291521 1.78582 105 110 112 0.459594 -0.58661 -0.66683
-0.89671 0.292623 1.78582 63 95 115 0.697496 -0.248315 -0.67219
-0.895258 0.295639 1.78348 63 95 115 0.472837 -0.232618 -0.849891
-0.892243 0.298654 1.78446 59 95 115 0.386006 -0.091387 -0.917958
-0.883197 0.334835 1.78311 108 113 113 0.728796 -0.424718 -0.537095
-0.907318 0.283578 1.78458 105 112 114 0.511395 -0.245655 -0.823486
-0.904303 0.286593 1.78458 83 107 119 0.729337 -0.385155 -0.565441
-0.901288 0.289608 1.78559 91 107 114 0.527044 -0.557354 -0.641546
-0.898273 0.292623 1.78466 83 107 119 0.825096 -0.242131 -0.51048
-0.904303 0.283578 1.78703 82 106 118 0.861894 -0.236983 -0.448306
-0.901288 0.286593 1.78755 87 109 119 0.817767 -0.316707 -0.480576
-0.898273 0.289608 1.78769 66 100 119 0.507761 -0.34438 -0.789672
