ply
format ascii 1.0
element vertex 422
property float x
property float y
property float z
property uchar red
property uchar green
property uchar blue
property float nx
property float ny
property float nz
end_header
-1.63396 0.496511 1.48732 89 143 77 0.059318 -0.478685 -0.87598
-1.63531 0.497652 1.48732 89 143 77 -0.355719 -0.205943 -0.91162
-1.63193 0.497652 1.48732 89 143 77 0.399513 0.00905 -0.916683
-1.63396 0.500586 1.48732 89 143 77 0.153956 0.205706 -0.966428
-1.63396 0.497652 1.48686 89 143 77 0.000978 0.000978 -0.999999
-1.64458 0.506698 1.49034 98 112 46 -0.603277 0.091582 -0.792256
-1.64356 0.509713 1.49034 98 112 46 -0.588563 0.204384 -0.78219
-1.64301 0.510555 1.49034 98 112 46 -0.518415 0.397397 -0.75718
-1.64136 0.512728 1.49034 62 131 53 -0.491641 0.445601 -0.74815
-1.63999 0.513939 1.49034 72 133 59 -0.300094 0.455583 -0.838086
-1.63744 0.515743 1.49034 72 134 59 -0.359919 0.445539 -0.819728
-1.63698 0.51616 1.49034 72 133 59 -0.39201 0.499365 -0.772634
-1.63396 0.518465 1.49034 71 130 58 -0.235688 0.358655 -0.903226
-1.63373 0.518758 1.49034 71 130 58 -0.249264 0.466414 -0.84872
-1.63032 0.506698 1.49034 82 103 72 0.520717 -0.080874 -0.84989
-1.63031 0.509713 1.49034 82 103 72 0.370284 -0.084829 -0.925037
-1.62919 0.512728 1.49034 82 103 72 0.361386 -0.087324 -0.928318
-1.62865 0.515743 1.49034 60 96 48 0.476547 -0.04506 -0.877993
-1.62856 0.518758 1.49034 63 123 53 0.414848 0.254943 -0.873444
-1.63095 0.520071 1.49034 53 112 40 -0.038133 0.653916 -0.755605
-1.64301 0.498449 1.49034 91 119 48 -0.50115 -0.251346 -0.828054
-1.64395 0.500667 1.49034 91 119 48 -0.583833 -0.144838 -0.79885
-1.64446 0.503682 1.49034 91 119 48 -0.578136 -0.049233 -0.814454
-1.63698 0.493749 1.49034 77 125 61 -0.296342 -0.530881 -0.793944
-1.63849 0.494637 1.49034 77 125 61 -0.296543 -0.448696 -0.843051
-1.63396 0.492105 1.49034 75 125 61 -0.20642 -0.555041 -0.805804
-1.63095 0.49205 1.49034 75 125 61 0.228554 -0.470731 -0.852159
-1.62856 0.494637 1.49034 80 130 68 0.460894 -0.231203 -0.856809
-1.63999 0.495484 1.49034 65 133 53 -0.375166 -0.451796 -0.809401
-1.64247 0.497652 1.49034 65 133 53 -0.403246 -0.435377 -0.804885
-1.62865 0.497652 1.49034 95 145 81 0.645179 0.104346 -0.756873
-1.62988 0.500667 1.49034 66 106 59 0.653618 0.186089 -0.73359
-1.63059 0.503682 1.49034 95 122 86 0.630194 0.064598 -0.773746
-1.64301 0.506698 1.48935 98 112 46 -0.45779 0.064613 -0.88671
-1.64301 0.509713 1.48998 98 112 46 -0.471606 0.218476 -0.854316
-1.63999 0.506698 1.48805 62 134 53 -0.309488 -0.011186 -0.950837
-1.63999 0.509713 1.48837 62 134 53 -0.31412 0.236666 -0.919412
-1.63698 0.506698 1.48749 59 127 50 -0.007529 0.100033 -0.994956
-1.63698 0.509713 1.488 59 127 50 0.033575 0.282277 -0.958745
-1.63999 0.512728 1.48967 62 131 53 -0.172022 0.411986 -0.894805
-1.63698 0.512728 1.48935 65 131 55 -0.086965 0.286855 -0.954019
-1.63396 0.506698 1.48819 61 116 51 0.355742 0.064801 -0.932335
-1.63396 0.509713 1.48849 61 116 51 0.301435 0.187528 -0.934864
-1.64301 0.500667 1.48986 91 119 48 -0.360444 -0.128434 -0.923897
-1.63698 0.515743 1.49017 72 134 59 -0.285497 0.303066 -0.909199
-1.64301 0.503682 1.48959 91 119 48 -0.399694 -0.085941 -0.912611
-1.63396 0.515743 1.48924 67 129 55 -0.069226 0.146665 -0.986761
-1.63095 0.515743 1.48935 72 130 59 0.135905 0.06621 -0.988507
-1.63698 0.494637 1.48976 77 125 61 -0.318605 -0.462998 -0.827118
-1.63095 0.518758 1.48969 71 130 58 -0.012949 0.217785 -0.975911
-1.63396 0.494637 1.48858 75 125 61 -0.171581 -0.514742 -0.84
-1.63095 0.494637 1.48902 75 125 61 0.395082 -0.339306 -0.853687
-1.63999 0.497652 1.48947 65 133 53 -0.319327 -0.281066 -0.905004
-1.63698 0.497652 1.48839 78 133 64 -0.373668 -0.361264 -0.854319
-1.63999 0.500667 1.4888 60 131 47 -0.340064 -0.169332 -0.925031
-1.63698 0.500667 1.48761 65 135 53 -0.230903 -0.078632 -0.969794
-1.63095 0.497652 1.48803 89 143 77 0.677265 0.009735 -0.735674
-1.63396 0.500667 1.4874 89 143 77 0.349593 0.224842 -0.909522
-1.63095 0.500667 1.48911 96 144 84 0.594353 0.274195 -0.756017
-1.63999 0.503682 1.48841 64 139 55 -0.34023 -0.103548 -0.934624
-1.63698 0.503682 1.48741 64 138 55 -0.036233 -0.025881 -0.999008
-1.63396 0.503682 1.48801 63 105 54 0.314281 0.085474 -0.945474
-1.66713 0.550716 1.49034 92 101 51 0.437782 -0.222626 -0.871082
-1.66449 0.55494 1.49034 92 101 51 0.365411 -0.239205 -0.899586
-1.64378 0.494637 1.49335 91 119 48 -0.601079 -0.489955 -0.631386
-1.64642 0.512728 1.49335 118 111 50 -0.1519 0.182535 -0.971394
-1.64595 0.497652 1.49335 91 119 48 -0.612606 -0.410064 -0.675693
-1.64602 0.512954 1.49335 118 111 50 -0.302981 0.449033 -0.840578
-1.64301 0.514961 1.49335 94 123 53 -0.306433 0.485578 -0.818726
-1.64201 0.515743 1.49335 64 122 53 -0.451095 0.510581 -0.731997
-1.64602 0.497774 1.49335 91 119 48 -0.619642 -0.339908 -0.707465
-1.63999 0.517468 1.49335 64 122 53 -0.424983 0.540737 -0.725943
-1.64738 0.500667 1.49335 91 119 48 -0.567906 -0.203589 -0.797518
-1.63855 0.518758 1.49335 64 122 53 -0.506752 0.560626 -0.654905
-1.64819 0.503682 1.49335 91 119 48 -0.594973 -0.082115 -0.79954
-1.62299 0.506698 1.49335 111 121 104 0.288646 -0.081546 -0.953957
-1.62255 0.509713 1.49335 111 121 104 0.470062 -0.036575 -0.881875
-1.623 0.512728 1.49335 130 135 122 0.498455 0.240792 -0.832803
-1.62492 0.515329 1.49335 117 125 104 0.543433 0.343476 -0.765967
-1.62518 0.515743 1.49335 117 125 104 0.679882 0.213144 -0.701663
-1.62648 0.518758 1.49335 77 94 64 0.71037 0.262217 -0.653159
-1.63698 0.520226 1.49335 54 112 39 -0.484483 0.571656 -0.662182
-1.63498 0.521773 1.49335 50 112 39 -0.362155 0.637459 -0.680066
-1.63396 0.522161 1.49335 50 112 39 -0.117312 0.743967 -0.657839
-1.65507 0.55409 1.49335 92 101 51 0.235066 -0.357709 -0.903763
-1.63095 0.522405 1.49335 50 112 39 -0.052809 0.743604 -0.666532
-1.6482 0.506698 1.49335 91 119 48 -0.580155 0.043547 -0.813341
-1.63698 0.49005 1.49335 82 130 66 -0.345672 -0.748145 -0.566383
-1.65411 0.55494 1.49335 92 101 51 0.310792 -0.198288 -0.929564
-1.66713 0.536456 1.49335 92 101 51 0.539763 -0.304114 -0.784965
-1.66683 0.536849 1.49335 92 101 51 0.665569 -0.133114 -0.734369
-1.63997 0.491622 1.49335 82 130 66 -0.365386 -0.617715 -0.696363
-1.64301 0.493859 1.49335 82 130 66 -0.486351 -0.600786 -0.634444
-1.63999 0.491636 1.49335 82 130 66 -0.438927 -0.595806 -0.672576
-1.63396 0.488765 1.49335 74 122 58 -0.16618 -0.724177 -0.669292
-1.63095 0.488638 1.49335 74 122 58 0.123903 -0.694154 -0.709082
-1.62793 0.489695 1.49335 80 128 66 0.250595 -0.609938 -0.751784
-1.62492 0.491273 1.49335 76 127 62 0.276429 -0.501321 -0.819917
-1.62438 0.491622 1.49335 70 126 55 0.307954 -0.3656 -0.878351
-1.6219 0.494466 1.49335 68 123 53 0.3112 -0.273213 -0.910225
-1.62178 0.494637 1.49335 70 126 55 0.224201 -0.086424 -0.970703
-1.62067 0.497652 1.49335 59 102 48 0.175811 -0.033765 -0.983845
-1.6219 0.500057 1.49335 59 102 48 0.104316 0.076804 -0.991574
-1.62268 0.500667 1.49335 59 102 48 0.223363 0.152827 -0.96268
-1.62413 0.503682 1.49335 110 125 104 0.223293 0.010633 -0.974693
-1.64794 0.509713 1.49335 98 112 46 -0.459939 0.130388 -0.878325
-1.64301 0.494637 1.49271 91 119 48 -0.452631 -0.528898 -0.717909
-1.64602 0.512728 1.49326 118 111 50 -0.437189 0.280721 -0.854436
-1.64301 0.512728 1.49174 94 123 53 -0.487437 0.470914 -0.735286
-1.64301 0.497652 1.49068 91 119 48 -0.590341 -0.424048 -0.686791
-1.64602 0.500667 1.49216 91 119 48 -0.640337 -0.216562 -0.736933
-1.64602 0.503682 1.49164 91 119 48 -0.632034 -0.061627 -0.772486
-1.63999 0.515743 1.49184 64 122 53 -0.48451 0.55157 -0.678985
-1.64602 0.506698 1.49165 91 119 48 -0.63089 0.088878 -0.770765
-1.63698 0.518758 1.49212 64 122 53 -0.431408 0.5405 -0.72232
-1.63698 0.491622 1.49179 82 130 66 -0.317982 -0.595612 -0.737654
-1.63396 0.518758 1.49057 64 122 53 -0.342914 0.583442 -0.73621
-1.63999 0.494637 1.49088 82 130 66 -0.384944 -0.561855 -0.732213
-1.62793 0.506698 1.4916 93 106 86 0.371566 -0.162472 -0.91408
-1.63396 0.491622 1.4907 74 122 58 -0.166118 -0.662947 -0.730004
-1.62793 0.509713 1.49108 93 106 86 0.30931 -0.093451 -0.946358
-1.63095 0.491622 1.4906 74 122 58 0.117248 -0.651543 -0.749497
-1.62492 0.506698 1.49265 110 121 101 0.331007 -0.184519 -0.925412
-1.62492 0.509713 1.49182 110 121 101 0.407685 -0.038511 -0.91231
-1.62793 0.512728 1.49097 120 130 111 0.429371 -0.030574 -0.90261
-1.62793 0.491622 1.49198 80 128 66 0.357714 -0.42705 -0.830463
-1.65507 0.55494 1.49307 92 101 51 0.246045 -0.158267 -0.95625
-1.62492 0.512728 1.49225 110 121 101 0.442483 0.136039 -0.886398
-1.62492 0.491622 1.4932 76 127 62 0.335825 -0.369561 -0.866398
-1.62793 0.494637 1.49069 78 127 64 0.391884 -0.176563 -0.902913
-1.62793 0.515743 1.49092 73 89 59 0.587694 0.122252 -0.799794
-1.62793 0.518758 1.49118 77 94 64 0.748183 0.182073 -0.638021
-1.62492 0.494637 1.49192 65 117 53 0.378047 -0.18543 -0.907026
-1.6219 0.494637 1.49333 68 123 53 0.395291 -0.032832 -0.917969
-1.63396 0.521773 1.49296 50 112 39 -0.230324 0.669037 -0.706641
-1.62793 0.497652 1.49081 80 129 66 0.390567 0.130189 -0.911322
-1.62492 0.497652 1.49193 75 124 62 0.339928 0.151233 -0.928212
-1.63095 0.521773 1.49252 50 112 39 -0.038125 0.772387 -0.634007
-1.62793 0.500667 1.49196 74 121 62 0.435651 0.242698 -0.866779
-1.62492 0.500667 1.49298 64 109 54 0.248537 0.175991 -0.9525
-1.6219 0.497652 1.49313 62 113 49 0.302991 0.041836 -0.952075
-1.66713 0.536849 1.49318 92 101 51 0.468968 -0.156323 -0.869271
-1.62793 0.503682 1.49238 95 110 87 0.435774 -0.030651 -0.899534
-1.62492 0.503682 1.49313 118 132 111 0.249535 -0.043023 -0.96741
-1.64602 0.509713 1.49224 98 112 46 -0.539965 0.247419 -0.804501
-1.64662 0.494637 1.49637 91 119 48 -0.619292 -0.478315 -0.622649
-1.649 0.497652 1.49637 91 119 48 -0.630718 -0.456727 -0.627372
-1.64904 0.497684 1.49637 91 119 48 -0.295395 -0.589193 -0.752059
-1.63698 0.488455 1.49637 77 125 61 -0.239835 -0.935497 -0.259471
-1.63733 0.488607 1.49637 77 125 61 -0.321918 -0.871161 -0.370739
-1.63396 0.487572 1.49637 77 125 61 -0.170638 -0.933654 -0.314917
-1.63095 0.487159 1.49637 77 125 61 -0.075535 -0.934252 -0.348522
-1.64301 0.491121 1.49637 82 130 66 -0.336368 -0.798675 -0.498973
-1.63999 0.489879 1.49637 82 130 66 -0.366084 -0.804107 -0.468396
-1.62793 0.487353 1.49637 83 126 60 0.07753 -0.91268 -0.401253
-1.62492 0.487495 1.49637 75 126 57 0.18352 -0.914753 -0.359926
-1.6219 0.488576 1.49637 74 126 59 0.316852 -0.877786 -0.359301
-1.65507 0.547302 1.49637 92 101 51 0.214056 -0.450565 -0.866701
-1.65206 0.548824 1.49637 92 101 51 0.221749 -0.427127 -0.876578
-1.65197 0.548909 1.49637 92 101 51 0.300835 -0.364328 -0.881342
-1.64602 0.523814 1.49637 89 109 44 0.267334 0.270193 -0.924948
-1.64904 0.551481 1.49637 92 101 51 0.374187 -0.33723 -0.863863
-1.64688 0.524788 1.49637 89 109 44 0.324714 0.386271 -0.863339
-1.64301 0.521905 1.49637 80 112 43 0.106364 0.393684 -0.913071
-1.64872 0.551924 1.49637 92 101 51 0.486357 -0.310072 -0.816891
-1.64683 0.55494 1.49637 92 101 51 0.484003 -0.299174 -0.822336
-1.62185 0.488607 1.49637 74 126 59 0.510309 -0.753157 -0.415139
-1.61889 0.490626 1.49637 75 130 58 0.506758 -0.697419 -0.506758
-1.61795 0.491622 1.49637 71 127 55 0.652711 -0.595662 -0.46814
-1.61587 0.494126 1.49637 71 127 55 0.632938 -0.521541 -0.572176
-1.61555 0.494637 1.49637 71 127 55 0.810515 -0.345544 -0.472933
-1.61497 0.497652 1.49637 71 123 53 0.808404 -0.260122 -0.528033
-1.61377 0.500667 1.49637 66 119 53 0.721773 -0.219806 -0.656299
-1.63999 0.522299 1.49637 54 112 39 -0.187884 0.588092 -0.786669
-1.63698 0.523521 1.49637 54 112 39 -0.272935 0.659194 -0.700693
-1.63396 0.524733 1.49637 50 112 39 -0.279782 0.714642 -0.6411
-1.63377 0.524788 1.49637 50 112 39 -0.120199 0.76423 -0.633643
-1.63095 0.525226 1.49637 53 112 40 -0.02355 0.815934 -0.577665
-1.6243 0.521773 1.49637 59 113 46 0.54184 0.372617 -0.75337
-1.62793 0.525218 1.49637 53 108 40 0.087671 0.826406 -0.556207
-1.66411 0.533258 1.49637 92 101 51 0.392588 -0.222025 -0.892513
-1.66384 0.533834 1.49637 92 101 51 0.367123 -0.082031 -0.926548
-1.6633 0.536849 1.49637 92 101 51 0.362171 -0.12256 -0.924019
-1.6611 0.541374 1.49637 92 101 51 0.471055 -0.225682 -0.852746
-1.66047 0.542879 1.49637 92 101 51 0.485539 -0.335897 -0.807109
-1.64602 0.494637 1.49565 91 119 48 -0.633354 -0.472076 -0.613194
-1.65507 0.512728 1.49522 73 121 43 0.003097 -0.056785 -0.998382
-1.64602 0.497652 1.49343 91 119 48 -0.62773 -0.460336 -0.62773
-1.65206 0.512728 1.49519 73 121 43 -0.208833 0.034607 -0.977339
-1.64904 0.500667 1.49436 91 119 48 -0.434474 -0.380364 -0.816429
-1.65507 0.515743 1.49536 73 121 43 0.039885 0.007159 -0.999179
-1.65206 0.515743 1.49516 73 121 43 -0.190444 -0.073994 -0.978905
-1.65507 0.500667 1.49555 80 127 49 0.30085 -0.107352 -0.94761
-1.65206 0.500667 1.49529 80 127 49 -0.168973 -0.181872 -0.968695
-1.65507 0.503682 1.49559 80 127 49 0.201932 -0.029522 -0.978955
-1.64904 0.512728 1.49393 100 104 41 -0.311936 0.052631 -0.948644
-1.64904 0.515743 1.49424 100 104 41 -0.03168 0.092854 -0.995176
-1.65206 0.503682 1.49533 80 127 49 -0.218839 -0.072946 -0.97303
-1.65507 0.518758 1.49534 100 91 34 -0.215342 -0.104523 -0.970929
-1.64904 0.503682 1.49385 77 126 47 -0.414855 -0.069369 -0.907239
-1.65507 0.506698 1.49496 83 120 46 -0.017217 0.021269 -0.999626
-1.65206 0.518758 1.49429 100 91 34 -0.10631 -0.132588 -0.985454
-1.65206 0.506698 1.49503 83 120 46 -0.237306 -0.050412 -0.970126
-1.64904 0.518758 1.49427 100 104 41 0.25228 0.069032 -0.965189
-1.64904 0.506698 1.49385 66 130 47 -0.394537 -0.003855 -0.918872
-1.64602 0.515743 1.49449 94 123 53 -0.076189 0.362231 -0.928969
-1.65507 0.548909 1.49546 92 101 51 0.255294 -0.418441 -0.871626
-1.64301 0.515743 1.49391 94 123 53 -0.148567 0.448586 -0.881305
-1.63698 0.488607 1.49598 77 125 61 -0.33844 -0.846881 -0.410184
-1.65206 0.548909 1.49634 92 101 51 0.249055 -0.364003 -0.897482
-1.64602 0.518758 1.49556 81 129 55 0.12615 0.245797 -0.961078
-1.63396 0.488607 1.49366 77 125 61 -0.152933 -0.918999 -0.36339
-1.63095 0.488607 1.49341 77 125 61 0.017229 -0.894559 -0.446617
-1.65507 0.551924 1.49428 92 101 51 0.247469 -0.349971 -0.903482
-1.64301 0.491622 1.49558 82 130 66 -0.410302 -0.723384 -0.555309
-1.63999 0.491622 1.49337 82 130 66 -0.38112 -0.799227 -0.464741
-1.65206 0.551924 1.49507 92 101 51 0.290926 -0.341651 -0.893665
-1.64904 0.551924 1.49621 92 101 51 0.367124 -0.321424 -0.872872
-1.64301 0.518758 1.49564 94 123 53 -0.222673 0.399632 -0.889219
-1.65206 0.55494 1.49408 92 101 51 0.324056 -0.171068 -0.930443
-1.62793 0.488607 1.49457 83 126 60 0.129253 -0.78592 -0.604668
-1.64904 0.55494 1.49503 92 101 51 0.38945 -0.176762 -0.903927
-1.62492 0.488607 1.49488 75 126 57 0.24705 -0.60897 -0.753738
-1.6219 0.488607 1.49633 74 126 59 0.359197 -0.560737 -0.746024
-1.6219 0.491622 1.49408 75 129 58 0.331315 -0.44751 -0.830642
-1.61889 0.491622 1.4955 75 130 58 0.45072 -0.440957 -0.77615
-1.61889 0.494637 1.49408 69 126 54 0.402758 -0.26398 -0.876414
-1.61889 0.497652 1.49368 59 102 48 0.4508 -0.079063 -0.889117
-1.6219 0.500667 1.49344 59 102 48 0.080559 0.124925 -0.98889
-1.6219 0.503682 1.49382 134 146 128 0.15428 0.06713 -0.985744
-1.6219 0.506698 1.49367 134 146 128 0.313252 0.003714 -0.949663
-1.61587 0.494637 1.49603 71 127 55 0.545082 -0.15298 -0.824307
-1.61587 0.497652 1.49557 69 126 57 0.526046 -0.201626 -0.82621
-1.61587 0.500667 1.49426 66 119 53 0.474596 -0.103419 -0.874107
-1.64602 0.521773 1.49596 70 117 43 0.301752 0.139374 -0.943144
-1.64301 0.521773 1.49633 80 112 43 -0.086207 0.271488 -0.958573
-1.63999 0.518758 1.49439 64 122 53 -0.324398 0.449769 -0.83215
-1.6219 0.509713 1.4937 111 121 106 0.405218 0.100959 -0.908629
-1.6219 0.512728 1.49396 111 121 104 0.459388 0.268872 -0.846564
-1.62492 0.515743 1.49354 77 94 64 0.520385 0.253202 -0.815529
-1.65206 0.509713 1.49494 96 110 41 -0.266352 0.025776 -0.963531
-1.6219 0.515743 1.49546 74 84 62 0.497247 0.322496 -0.805445
-1.64904 0.509713 1.49384 96 110 41 -0.327486 0.034405 -0.944229
-1.63999 0.521773 1.49603 54 112 39 -0.221913 0.472508 -0.852931
-1.63698 0.521773 1.49473 54 112 39 -0.403308 0.561339 -0.722662
-1.63095 0.524788 1.49589 50 112 39 -0.047013 0.745088 -0.665308
-1.62492 0.521773 1.49596 58 115 45 0.658289 0.269372 -0.702918
-1.66713 0.533834 1.49474 92 101 51 0.556567 -0.223552 -0.800161
-1.66411 0.533834 1.49623 92 101 51 0.449639 -0.108534 -0.886592
-1.66411 0.536849 1.49591 92 101 51 0.564034 -0.213626 -0.79764
-1.6611 0.542879 1.49583 92 101 51 0.463007 -0.26919 -0.844489
-1.66713 0.542879 1.49219 92 101 51 0.520541 -0.194637 -0.831357
-1.66713 0.548909 1.4908 92 101 51 0.453579 -0.244235 -0.857097
-1.6611 0.548909 1.49367 92 101 51 0.346137 -0.321953 -0.881213
-1.6611 0.55494 1.49155 92 101 51 0.277144 -0.248719 -0.928078
-1.63999 0.526718 1.49938 81 104 39 0.072518 0.550283 -0.831823
-1.64178 0.527803 1.49938 81 104 39 0.325725 0.399823 -0.856764
-1.63698 0.526801 1.49938 75 101 35 -0.104672 0.700268 -0.706165
-1.64301 0.529324 1.49938 75 101 35 0.267301 0.316963 -0.909992
-1.65393 0.494637 1.49938 126 120 73 0.322496 -0.497247 -0.805445
-1.64904 0.493475 1.49938 126 120 73 -0.44276 -0.436273 -0.783345
-1.61889 0.489854 1.49938 72 117 49 0.593096 -0.775825 -0.215249
-1.61672 0.491622 1.49938 72 117 49 0.639295 -0.738844 -0.213098
-1.61587 0.492437 1.49938 72 117 49 0.707944 -0.643731 -0.290562
-1.61406 0.494637 1.49938 71 121 51 0.823263 -0.363251 -0.436218
-1.61314 0.497652 1.49938 63 116 47 0.828842 -0.268018 -0.491108
-1.61286 0.498452 1.49938 63 120 51 0.809423 -0.307675 -0.50017
-1.61208 0.500667 1.49938 66 113 44 0.868857 -0.13734 -0.475631
-1.64983 0.494637 1.49938 126 120 73 -0.336687 -0.502637 -0.79624
-1.61168 0.503682 1.49938 57 116 42 0.910318 -0.041318 -0.411842
-1.65206 0.495581 1.49938 94 124 61 0.001347 -0.534955 -0.844879
-1.63999 0.488175 1.49938 93 118 62 -0.12167 -0.816506 -0.564371
-1.64138 0.488607 1.49938 93 118 62 -0.26301 -0.77013 -0.581141
-1.63698 0.487497 1.49938 93 118 62 -0.170799 -0.902794 -0.394703
-1.63396 0.486914 1.49938 92 118 54 -0.202954 -0.933589 -0.295333
-1.63095 0.486149 1.49938 92 118 54 -0.029104 -0.947774 -0.317612
-1.62793 0.486401 1.49938 82 122 56 0.092979 -0.949432 -0.29989
-1.62492 0.486769 1.49938 82 122 56 0.22946 -0.9387 -0.257273
-1.6219 0.487846 1.49938 78 129 57 0.372545 -0.901412 -0.220605
-1.62072 0.488607 1.49938 78 123 53 0.531882 -0.821445 -0.205742
-1.61889 0.515743 1.49702 72 114 58 0.507367 0.396431 -0.765128
-1.6219 0.518758 1.49654 72 114 58 0.488243 0.397407 -0.776972
-1.61889 0.518758 1.49842 72 114 58 0.509168 0.392043 -0.766192
-1.64904 0.494637 1.49866 126 120 73 -0.528028 -0.514618 -0.675541
-1.64301 0.524788 1.49747 68 102 34 0.214369 0.418389 -0.882608
-1.63999 0.524788 1.49812 68 102 34 -0.034523 0.539947 -0.840991
-1.61587 0.512728 1.49689 57 110 43 0.539535 0.379794 -0.751437
-1.61286 0.500667 1.49769 63 120 51 0.839697 -0.24715 -0.483555
-1.61587 0.515743 1.49899 57 110 43 0.445934 0.485427 -0.752
-1.63698 0.524788 1.49755 68 102 34 -0.165859 0.643655 -0.747127
-1.61286 0.503682 1.49701 63 109 39 0.885233 -0.020088 -0.464714
-1.63396 0.524788 1.49644 68 102 34 -0.165749 0.731423 -0.661474
-1.64301 0.527803 1.49886 81 104 39 0.173266 0.385194 -0.906424
-1.65206 0.497652 1.4979 94 124 61 0.009698 -0.63592 -0.771694
-1.64904 0.497652 1.4964 94 124 61 -0.48621 -0.522968 -0.700075
-1.63999 0.488607 1.49854 93 118 62 -0.291524 -0.865413 -0.407522
-1.64602 0.524788 1.4967 69 113 44 0.247451 0.444805 -0.860765
-1.61889 0.489004 1.5024 73 117 49 0.609125 -0.764119 -0.212341
-1.61589 0.491622 1.5024 73 117 49 0.644552 -0.742536 -0.182189
-1.61587 0.491632 1.5024 72 117 49 0.662048 -0.715262 -0.223813
-1.61286 0.494239 1.5024 72 115 48 0.650743 -0.676838 -0.344127
-1.61256 0.494637 1.5024 81 111 48 0.85203 -0.432948 -0.294281
-1.61095 0.497652 1.5024 71 115 48 0.866187 -0.329611 -0.375603
-1.61025 0.500667 1.5024 61 111 40 0.872889 -0.076814 -0.481835
-1.61042 0.503682 1.5024 56 112 39 0.90115 0.027953 -0.432605
-1.64602 0.486948 1.5024 122 125 80 -0.238931 -0.579369 -0.779259
-1.64301 0.48623 1.5024 100 120 67 -0.189141 -0.659689 -0.727349
-1.65206 0.489822 1.5024 126 120 73 -0.126868 -0.520595 -0.844326
-1.63999 0.485672 1.5024 96 118 64 -0.082978 -0.749711 -0.656543
-1.63698 0.485804 1.5024 85 118 55 -0.051735 -0.837544 -0.543914
-1.63095 0.485089 1.5024 92 118 54 -0.061269 -0.899978 -0.431608
-1.63338 0.485592 1.5024 92 118 54 -0.169946 -0.884589 -0.434305
-1.63396 0.485726 1.5024 92 118 54 -0.101796 -0.896644 -0.430891
-1.62793 0.485219 1.5024 82 122 56 0.101122 -0.904558 -0.414185
-1.62619 0.485592 1.5024 82 122 56 0.191082 -0.921439 -0.338286
-1.62492 0.48595 1.5024 82 122 56 0.329985 -0.911458 -0.245672
-1.6219 0.487165 1.5024 78 117 49 0.442817 -0.862964 -0.243323
-1.61952 0.488607 1.5024 78 123 53 0.505833 -0.832867 -0.224645
-1.64602 0.488607 1.50119 122 125 80 -0.285611 -0.614302 -0.735567
-1.63698 0.527803 1.50022 75 101 35 0.098121 0.628266 -0.771786
-1.64301 0.488607 1.5002 100 120 67 -0.262421 -0.688657 -0.675934
-1.65206 0.491622 1.50127 126 120 73 -0.033937 -0.481902 -0.875568
-1.61286 0.494637 1.50168 72 115 48 0.757854 -0.554251 -0.344185
-1.64301 0.530819 1.49984 75 101 35 0.246594 0.535062 -0.808022
-1.64904 0.491622 1.5002 149 119 79 -0.302356 -0.523979 -0.796258
-1.65206 0.494637 1.4998 126 121 74 -0.094733 -0.396782 -0.913011
-1.61286 0.497652 1.49972 63 114 45 0.775255 -0.352975 -0.523821
-1.63999 0.530819 1.50149 75 101 35 0.319323 0.470333 -0.82269
-1.63095 0.485592 1.50106 92 118 54 -0.101113 -0.931586 -0.349176
-1.63698 0.530819 1.50226 85 93 34 0.161652 0.511649 -0.843851
-1.62793 0.485592 1.50162 82 122 56 0.09568 -0.9312 -0.351727
-1.64315 0.482576 1.50541 142 109 69 -0.075652 -0.351717 -0.933045
-1.64214 0.482576 1.50541 119 120 72 0.210074 -0.497225 -0.841806
-1.63999 0.48302 1.50541 119 120 72 0.126352 -0.774465 -0.61987
-1.63698 0.483937 1.50541 112 120 70 0.121884 -0.873261 -0.471762
-1.63396 0.483907 1.50541 87 110 54 -0.050231 -0.894652 -0.443932
-1.63095 0.483498 1.50541 105 122 71 -0.01699 -0.913518 -0.406444
-1.62793 0.483914 1.50541 105 124 72 0.206664 -0.919297 -0.334938
-1.62492 0.484851 1.50541 84 109 50 0.31877 -0.89046 -0.324756
-1.62322 0.485592 1.50541 85 109 49 0.407522 -0.865413 -0.291524
-1.6219 0.486292 1.50541 85 109 49 0.488968 -0.838449 -0.240652
-1.61889 0.487988 1.50541 81 109 49 0.46213 -0.859531 -0.21827
-1.6176 0.488607 1.50541 81 111 48 0.546628 -0.826572 -0.134079
-1.61587 0.48973 1.50541 79 109 46 0.635315 -0.738339 -0.226341
-1.61403 0.491622 1.50541 78 109 47 0.686627 -0.68347 -0.247817
-1.61286 0.492956 1.50541 83 109 49 0.789882 -0.607267 -0.08551
-1.61175 0.494637 1.50541 75 109 44 0.874898 -0.454246 -0.167969
-1.63095 0.531376 1.50541 75 99 34 0.358955 0.696602 -0.621206
-1.61057 0.497652 1.50541 71 107 42 0.898746 -0.388922 -0.202473
-1.60984 0.499457 1.50541 63 108 39 0.923739 -0.337059 -0.181927
-1.6092 0.500667 1.50541 68 105 39 0.933603 -0.234454 -0.270955
-1.63396 0.530819 1.50382 68 102 34 0.330185 0.639226 -0.694528
-1.63095 0.530819 1.50477 68 102 34 0.216625 0.734031 -0.64364
-1.64301 0.482576 1.50539 142 109 69 0.001375 -0.636526 -0.771254
-1.64301 0.485592 1.50287 142 109 69 -0.086098 -0.663978 -0.742779
-1.63999 0.485592 1.50248 119 120 72 -0.012526 -0.750185 -0.661109
-1.63698 0.485592 1.50274 112 120 70 0.066749 -0.825135 -0.560978
-1.63396 0.485592 1.50263 87 110 54 -0.048488 -0.854768 -0.51674
-1.62492 0.485592 1.50338 84 109 50 0.321766 -0.890468 -0.321766
-1.61889 0.488607 1.50349 81 109 49 0.517871 -0.791945 -0.32347
-1.61587 0.491622 1.50242 79 109 46 0.602023 -0.694388 -0.394201
-1.60984 0.500667 1.50345 63 108 39 0.937074 -0.15778 -0.311443
-1.63564 0.482576 1.50843 96 116 62 0.061775 -0.728368 -0.682396
-1.63396 0.482684 1.50843 96 116 62 0.001282 -0.919277 -0.393609
-1.63173 0.482576 1.50843 96 116 62 -0.023732 -0.771995 -0.635186
-1.63031 0.482576 1.50843 99 120 65 0.148199 -0.849574 -0.506223
-1.62793 0.482954 1.50843 99 120 65 0.201336 -0.918149 -0.341272
-1.62492 0.483759 1.50843 104 123 68 0.344629 -0.879031 -0.329447
-1.6219 0.485262 1.50843 85 109 49 0.431231 -0.829291 -0.35541
-1.6214 0.485592 1.50843 85 109 49 0.571984 -0.761043 -0.306019
-1.61889 0.487353 1.50843 85 109 49 0.537392 -0.81604 -0.212813
-1.63095 0.533435 1.50843 94 89 34 0.48248 0.692835 -0.535904
-1.61722 0.488607 1.50843 81 111 48 0.672103 -0.733872 -0.098536
-1.63136 0.533834 1.50843 94 89 34 0.57448 0.477337 -0.664923
-1.63698 0.482372 1.50843 146 112 72 0.420768 -0.466256 -0.778177
-1.61587 0.489767 1.50843 90 110 54 0.678767 -0.73429 0.009716
-1.61402 0.491622 1.50843 83 109 49 0.738407 -0.673708 0.029536
-1.61286 0.493108 1.50843 87 109 50 0.788492 -0.609092 0.08536
-1.6116 0.494637 1.50843 75 109 44 0.817867 -0.575128 0.01793
-1.60984 0.497109 1.50843 75 104 40 0.793458 -0.608548 0.009659
-1.6096 0.497652 1.50843 68 105 39 0.970617 -0.238716 -0.030294
-1.60894 0.500667 1.50843 68 105 39 0.954282 -0.284337 -0.092182
-1.60788 0.503682 1.50843 63 104 33 0.974713 -0.204355 -0.090412
-1.62793 0.531293 1.50843 85 86 31 0.402378 0.6905 -0.601083
-1.63999 0.482576 1.50595 114 120 70 0.430963 -0.483399 -0.761969
-1.63698 0.482576 1.50811 114 120 70 0.398682 -0.693144 -0.600504
-1.63095 0.482576 1.50828 96 116 62 0.001228 -0.952066 -0.30589
-1.6219 0.485592 1.50751 85 109 49 0.483599 -0.828805 -0.281451
-1.60984 0.497652 1.50769 75 104 40 0.902331 -0.379241 -0.204877
-1.61889 0.486393 1.51145 101 118 63 0.642232 -0.724286 -0.250896
-1.61686 0.488607 1.51145 101 118 63 0.727942 -0.601485 -0.329114
-1.61587 0.489826 1.51145 100 110 56 0.734659 -0.665831 -0.130174
-1.61431 0.491622 1.51145 100 110 56 0.78336 -0.603622 -0.148284
-1.61286 0.493721 1.51145 86 106 47 0.811359 -0.580357 -0.069871
-1.61215 0.494637 1.51145 99 107 53 0.792144 -0.610295 0.006888
-1.62793 0.47992 1.51145 143 111 66 0.4788 -0.535522 -0.695678
-1.60984 0.497107 1.51145 84 105 46 0.821586 -0.566171 0.066692
-1.60957 0.497652 1.51145 83 104 44 0.970309 -0.230433 0.073489
-1.62504 0.482576 1.51145 115 124 70 0.445568 -0.659173 -0.605772
-1.609 0.500667 1.51145 75 99 36 0.95473 -0.296724 0.021106
-1.62492 0.482652 1.51145 115 129 75 0.350801 -0.832169 -0.429456
-1.6219 0.483909 1.51145 120 119 66 0.470326 -0.758748 -0.45066
-1.61969 0.485592 1.51145 108 126 70 0.592705 -0.720063 -0.360848
-1.63396 0.482576 1.50853 142 114 72 0.001335 -0.503455 -0.86402
-1.62793 0.482576 1.50901 143 111 66 0.32566 -0.704786 -0.630256
-1.61889 0.483802 1.51446 124 116 64 0.556548 -0.563315 -0.610681
-1.61728 0.485592 1.51446 124 116 64 0.644841 -0.540454 -0.540454
-1.61587 0.487613 1.51446 109 117 63 0.644607 -0.463782 -0.607773
-1.615 0.488607 1.51446 111 116 63 0.682177 -0.487748 -0.544736
-1.61322 0.491622 1.51446 106 116 62 0.756048 -0.418204 -0.503485
-1.61286 0.492375 1.51446 99 110 56 0.791462 -0.438622 -0.425674
-1.61187 0.494637 1.51446 93 109 53 0.860147 -0.384518 -0.335102
-1.61043 0.497652 1.51446 88 104 47 0.914405 -0.37337 -0.156393
-1.60984 0.498691 1.51446 82 101 42 0.923026 -0.381623 -0.048858
-1.60889 0.500667 1.51446 79 97 37 0.933995 -0.344386 -0.095142
-1.61889 0.485592 1.51256 124 116 64 0.599154 -0.616031 -0.51139
-1.61587 0.488607 1.51353 109 117 63 0.686184 -0.586496 -0.430319
-1.62492 0.482576 1.51153 139 110 62 0.424618 -0.493475 -0.759066
-1.60984 0.497652 1.51157 88 104 47 0.937861 -0.292302 0.187018
-1.60844 0.500667 1.51748 102 98 45 0.917915 -0.167791 -0.359552
-1.60984 0.494637 1.51737 131 104 61 0.822532 -0.178942 -0.539834
-1.60984 0.497652 1.51617 117 103 55 0.890486 -0.244476 -0.383753
