ply
format ascii 1.0
element vertex 756
property float x
property float y
property float z
property uchar red
property uchar green
property uchar blue
property float nx
property float ny
property float nz
end_header
-1.84201 1.27469 1.39989 154 75 71 -0.253271 0.37176 -0.893112
-1.83598 1.27949 1.39989 165 68 54 -0.432718 0.416632 -0.799483
-1.8581 1.30269 1.39989 166 69 54 0.376126 -0.05147 -0.925138
-1.76475 1.29666 1.39989 128 59 61 0.570238 0.556701 -0.60408
-1.76964 1.30049 1.39989 128 59 61 0.511881 0.70196 -0.495207
-1.77369 1.30269 1.39989 128 59 61 0.390312 0.779004 -0.490724
-1.78774 1.30515 1.39989 141 65 59 -0.051226 0.859769 -0.508108
-1.78171 1.30514 1.39989 156 70 58 0.143673 0.82501 -0.54655
-1.77568 1.30351 1.39989 156 70 58 0.249026 0.818228 -0.518159
-1.7998 1.26048 1.39857 169 76 66 -0.420406 -0.626454 -0.656364
-1.79377 1.26048 1.39445 145 93 100 -0.474595 -0.605402 -0.638943
-1.83598 1.27857 1.3994 165 68 54 -0.505528 0.351462 -0.787982
-1.8601 1.30269 1.39917 166 69 54 0.203702 -0.05424 -0.977529
-1.84201 1.24842 1.39843 154 75 71 0.524045 0.194818 -0.829109
-1.77568 1.36299 1.39712 171 57 39 -0.182242 -0.963652 -0.195353
-1.86613 1.29063 1.39982 166 71 56 0.109537 -0.107181 -0.988187
-1.84201 1.25445 1.39866 154 75 71 0.375114 0.016758 -0.926827
-1.84201 1.26048 1.39799 154 75 71 0.128393 -0.113994 -0.98515
-1.79377 1.30269 1.39718 153 66 59 -0.176939 0.878847 -0.44308
-1.84201 1.26651 1.39776 154 75 71 -0.182547 0.091886 -0.978894
-1.83598 1.26651 1.3969 154 75 71 -0.023505 -0.283294 -0.958745
-1.78774 1.30269 1.39539 153 66 59 -0.020063 0.88413 -0.46681
-1.84201 1.27254 1.39904 154 75 71 -0.307909 0.239167 -0.920864
-1.83598 1.27254 1.39679 154 75 71 -0.349919 0.198525 -0.915502
-1.78171 1.30269 1.39657 128 59 61 0.127219 0.837889 -0.530809
-1.82995 1.26651 1.39665 174 79 67 -0.026401 -0.593324 -0.804531
-1.77568 1.30269 1.39861 128 59 61 0.212813 0.81604 -0.537392
-1.82392 1.26651 1.39765 174 79 67 -0.045254 -0.870792 -0.489564
-1.81789 1.26651 1.39591 174 80 67 -0.20319 -0.941309 -0.269538
-1.76964 1.29666 1.39562 128 59 61 0.576399 0.535832 -0.616967
-1.82995 1.27254 1.39454 174 79 67 -0.285136 -0.057027 -0.956789
-1.82995 1.27857 1.39542 174 79 67 -0.48621 0.364256 -0.794303
-1.77568 1.25143 1.4029 118 69 82 0.012512 -0.649251 -0.760471
-1.75457 1.28012 1.4029 108 51 56 0.703181 0.50609 -0.499409
-1.77266 1.25056 1.4029 118 69 82 -0.193031 -0.718076 -0.66866
-1.76362 1.36107 1.4029 159 70 56 -0.034225 -0.980726 0.192369
-1.76964 1.24916 1.4029 118 69 82 -0.248628 -0.780287 -0.573878
-1.75555 1.28158 1.4029 108 51 56 0.796117 0.371521 -0.47767
-1.7606 1.3612 1.4029 159 70 56 0.076771 -0.978521 0.191317
-1.76663 1.24896 1.4029 118 67 81 -0.017574 -0.866524 -0.498826
-1.7534 1.27857 1.4029 108 51 56 0.666497 0.61331 -0.423832
-1.76362 1.24914 1.4029 118 67 81 0.061197 -0.898919 -0.43382
-1.83598 1.25399 1.4029 175 72 57 0.553063 -0.223382 -0.802634
-1.85407 1.3114 1.4029 160 64 50 0.454093 0.200992 -0.867987
-1.83576 1.25445 1.4029 175 72 57 0.532838 -0.310159 -0.787328
-1.85422 1.31174 1.4029 160 64 50 0.610301 0.264728 -0.746627
-1.85552 1.31475 1.4029 165 71 55 0.560133 0.276122 -0.78103
-1.75702 1.2846 1.4029 108 51 56 0.807049 0.399513 -0.434812
-1.85707 1.31777 1.4029 165 73 58 0.520382 0.267223 -0.811045
-1.85708 1.31781 1.4029 165 73 58 0.532894 0.178632 -0.827112
-1.83397 1.25746 1.4029 174 77 63 0.525914 -0.327697 -0.784875
-1.83296 1.25882 1.4029 174 77 63 0.581343 -0.368457 -0.725451
-1.83166 1.26048 1.4029 174 77 63 0.573957 -0.577344 -0.58073
-1.7606 1.24937 1.4029 113 62 81 0.231372 -0.879215 -0.41647
-1.75758 1.25108 1.4029 113 62 81 0.539834 -0.822532 -0.178942
-1.75723 1.25143 1.4029 110 64 82 0.777575 -0.544462 -0.314543
-1.82995 1.26201 1.4029 174 71 56 0.519885 -0.664577 -0.536709
-1.82828 1.26349 1.4029 173 77 63 0.499582 -0.78873 -0.358221
-1.82693 1.26426 1.4029 173 77 63 0.30336 -0.90715 -0.291636
-1.82392 1.26515 1.4029 172 78 65 0.187685 -0.935644 -0.298906
-1.75481 1.25445 1.4029 110 64 82 0.669468 -0.515104 -0.535239
-1.8209 1.26516 1.4029 145 93 93 -0.0325 -0.973795 -0.225092
-1.81789 1.2648 1.4029 145 93 93 -0.224075 -0.944413 -0.240571
-1.75457 1.25488 1.4029 105 60 79 0.754947 -0.21948 -0.617967
-1.754 1.25746 1.4029 102 58 76 0.69022 -0.226943 -0.68709
-1.75457 1.26006 1.4029 102 58 75 0.548329 0.162855 -0.820252
-1.81186 1.26327 1.4029 146 81 83 -0.323375 -0.86591 -0.381613
-1.81321 1.26349 1.4029 146 81 83 -0.137909 -0.949298 -0.282513
-1.75479 1.26048 1.4029 102 58 75 0.660161 0.001378 -0.751123
-1.81487 1.2638 1.4029 144 87 89 -0.295765 -0.932149 -0.208857
-1.75457 1.26121 1.4029 97 54 69 0.557909 -0.290875 -0.777258
-1.78774 1.25078 1.4029 125 80 89 -0.19147 -0.940822 -0.279629
-1.75335 1.26349 1.4029 97 54 70 0.481131 -0.166262 -0.860738
-1.75227 1.26651 1.4029 97 54 70 0.383402 -0.27214 -0.882577
-1.78966 1.25143 1.4029 125 80 89 -0.335475 -0.893108 -0.299691
-1.75155 1.26669 1.4029 92 47 64 0.205813 -0.322203 -0.924027
-1.75155 1.27684 1.4029 92 47 64 0.655654 0.595287 -0.464491
-1.79377 1.25334 1.4029 125 80 89 -0.414611 -0.808412 -0.417813
-1.74854 1.26898 1.4029 91 44 61 0.580035 -0.177191 -0.795087
-1.79075 1.25191 1.4029 125 80 89 -0.394323 -0.84943 -0.350682
-1.74849 1.26953 1.4029 91 44 62 0.828486 0.001356 -0.560008
-1.78472 1.25031 1.4029 127 79 87 -0.131074 -0.941841 -0.309443
-1.78171 1.24997 1.4029 127 79 87 -0.049066 -0.918995 -0.391203
-1.77869 1.25001 1.4029 123 72 84 0.115743 -0.807273 -0.578717
-1.76964 1.36178 1.4029 166 54 38 -0.12411 -0.9894 0.075394
-1.76663 1.36127 1.4029 166 54 38 -0.129639 -0.979085 0.156802
-1.77568 1.25143 1.4029 118 69 82 0.113009 -0.929939 -0.349918
-1.75457 1.27857 1.40159 108 51 56 0.57322 0.411331 -0.708679
-1.75758 1.28158 1.40023 108 51 56 0.749953 0.292626 -0.593246
-1.77266 1.25143 1.40179 118 69 82 -0.282773 -0.823322 -0.492118
-1.75758 1.2846 1.40192 108 51 56 0.781571 0.332208 -0.528001
-1.85708 1.30872 1.40014 162 68 52 0.518447 0.00404 -0.8551
-1.85708 1.31174 1.40022 162 68 52 0.620671 0.195596 -0.759282
-1.85407 1.30872 1.40225 160 64 50 0.505158 0.092494 -0.858056
-1.85708 1.31475 1.40169 162 68 52 0.557406 0.319665 -0.766233
-1.85708 1.31777 1.40289 165 73 58 0.571146 0.302371 -0.763128
-1.7606 1.25143 1.39997 113 62 81 0.224769 -0.779716 -0.584399
-1.75758 1.25143 1.40117 113 62 81 0.505635 -0.559391 -0.656822
-1.75758 1.25445 1.40041 113 62 81 0.625563 -0.215765 -0.749744
-1.75758 1.25746 1.4002 107 60 80 0.549978 -0.00679 -0.835152
-1.75758 1.26048 1.40038 107 60 80 0.633858 0.020896 -0.773167
-1.83598 1.25445 1.40275 175 72 57 0.546132 -0.30093 -0.781781
-1.75457 1.25746 1.40229 105 60 79 0.622848 -0.001375 -0.782341
-1.83598 1.25746 1.40156 174 77 63 0.531599 -0.375533 -0.759195
-1.83598 1.26048 1.39993 174 77 63 0.463071 -0.424075 -0.778284
-1.75457 1.26349 1.40159 97 54 69 0.701093 -0.206752 -0.682438
-1.75457 1.26651 1.40168 97 54 70 0.554986 -0.172963 -0.813679
-1.83296 1.26048 1.40173 174 77 63 0.484777 -0.518095 -0.704676
-1.82995 1.26349 1.40051 174 71 56 0.444837 -0.804561 -0.393448
-1.75155 1.26953 1.40164 92 47 64 0.32411 -0.186609 -0.927432
-1.75457 1.27254 1.39996 92 47 64 0.509813 -0.031436 -0.859711
-1.75155 1.27254 1.4017 92 47 64 0.40913 -0.001291 -0.912475
-1.81186 1.26349 1.40222 146 81 83 -0.231371 -0.940726 -0.247997
-1.75457 1.27556 1.4002 92 47 64 0.512003 0.221613 -0.829904
-1.78774 1.25143 1.40107 125 80 89 -0.27173 -0.88425 -0.379822
-1.75155 1.27556 1.40205 92 47 64 0.510336 0.228349 -0.829104
-1.79377 1.25445 1.40102 125 80 89 -0.493971 -0.735174 -0.464233
-1.78472 1.25143 1.40001 127 79 87 -0.136757 -0.926906 -0.349489
-1.74854 1.26953 1.40285 91 44 61 0.381263 0.001275 -0.924466
-1.77869 1.25143 1.40077 123 72 84 0.209853 -0.843942 -0.493683
-1.75155 1.27858 1.40592 108 51 56 0.667034 0.70488 -0.241268
-1.76362 1.24814 1.40592 116 64 82 0.168033 -0.97708 -0.130692
-1.76069 1.24842 1.40592 116 64 82 0.103203 -0.982251 -0.156626
-1.76362 1.36169 1.40592 159 70 56 -0.00361 -0.963976 0.265966
-1.7606 1.36186 1.40592 159 70 56 0.039274 -0.951439 0.305322
-1.7606 1.24844 1.40592 113 62 81 0.522768 -0.849674 -0.069045
-1.75758 1.25066 1.40592 113 62 81 0.622587 -0.77714 -0.091857
-1.83375 1.24842 1.40592 175 72 57 0.628266 -0.098121 -0.771786
-1.75681 1.25143 1.40592 110 64 82 0.726072 -0.675172 -0.130244
-1.83296 1.25103 1.40592 175 72 57 0.577706 -0.180438 -0.796051
-1.75457 1.25405 1.40592 110 64 82 0.732785 -0.652564 -0.192838
-1.83286 1.25143 1.40592 175 72 57 0.539139 -0.286171 -0.792108
-1.75413 1.25445 1.40592 110 64 82 0.574262 -0.740196 -0.349763
-1.83115 1.25445 1.40592 175 72 57 0.517548 -0.305464 -0.799272
-1.75155 1.25689 1.40592 102 58 76 0.645045 -0.577678 -0.500205
-1.82995 1.25646 1.40592 174 77 63 0.504217 -0.293734 -0.812087
-1.75111 1.25746 1.40592 100 55 70 0.586197 -0.455931 -0.669701
-1.82948 1.25746 1.40592 174 77 63 0.47033 -0.172504 -0.865466
-1.74873 1.26048 1.40592 100 55 70 0.579588 -0.459328 -0.673124
-1.75444 1.28158 1.40592 108 51 56 0.723702 0.658616 -0.206108
-1.82848 1.26048 1.40592 174 77 63 0.529418 -0.398293 -0.749053
-1.74854 1.26072 1.40592 100 54 70 0.677491 -0.409145 -0.611233
-1.82693 1.2619 1.40592 173 76 61 0.562948 -0.546042 -0.620426
-1.74721 1.26349 1.40592 99 52 69 0.921235 -0.212155 -0.326063
-1.75457 1.2819 1.40592 108 51 56 0.916513 0.339927 -0.210841
-1.82518 1.26349 1.40592 173 77 63 0.436751 -0.780956 -0.446493
-1.74659 1.26651 1.40592 97 50 67 0.909648 -0.127155 -0.395438
-1.75544 1.2846 1.40592 108 51 56 0.871868 0.374094 -0.316071
-1.82392 1.26417 1.40592 173 77 63 0.14617 -0.938494 -0.312831
-1.8209 1.2645 1.40592 145 93 93 -0.025643 -0.965897 -0.257654
-1.81789 1.26403 1.40592 145 93 93 -0.223279 -0.933839 -0.279449
-1.81487 1.26263 1.40592 140 97 99 -0.262055 -0.884997 -0.384847
-1.81673 1.26349 1.40592 140 97 99 -0.375131 -0.876318 -0.302231
-1.81186 1.26217 1.40592 144 87 89 -0.266884 -0.858604 -0.43769
-1.74647 1.26953 1.40592 94 47 66 0.942977 -0.008789 -0.332742
-1.7468 1.27254 1.40592 91 44 62 0.917045 0.296054 -0.267171
-1.79075 1.25093 1.40592 125 80 89 -0.242703 -0.911227 -0.332808
-1.79252 1.25143 1.40592 125 80 89 -0.27482 -0.884529 -0.376938
-1.78774 1.25015 1.40592 125 80 89 -0.235009 -0.924367 -0.300526
-1.79377 1.25183 1.40592 125 80 89 -0.366881 -0.836111 -0.40782
-1.77869 1.24821 1.40592 141 103 102 -0.149472 -0.872159 -0.465829
-1.77927 1.24842 1.40592 141 103 102 -0.129583 -0.889997 -0.437166
-1.77568 1.2478 1.40592 141 104 102 -0.089362 -0.860991 -0.500708
-1.78472 1.24944 1.40592 127 79 87 -0.175256 -0.926753 -0.332285
-1.78171 1.24893 1.40592 127 79 87 -0.178196 -0.910938 -0.372073
-1.77266 1.24771 1.40592 125 81 88 0.022845 -0.882903 -0.469
-1.76964 1.24763 1.40592 125 81 88 0.00621 -0.947667 -0.319201
-1.76663 1.24774 1.40592 120 76 83 0.084963 -0.976463 -0.198248
-1.76964 1.36204 1.40592 166 54 38 -0.092558 -0.976181 0.196223
-1.76663 1.36185 1.40592 166 54 38 -0.059123 -0.962317 0.265424
-1.82392 1.3305 1.40592 168 75 58 0.172392 -0.211871 -0.961973
-1.82237 1.33284 1.40592 168 75 58 0.475228 -0.320502 -0.819413
-1.8209 1.33497 1.40592 168 75 59 0.334206 -0.18755 -0.923651
-1.8203 1.33586 1.40592 168 75 59 0.255508 -0.238753 -0.936863
-1.81789 1.33854 1.40592 168 75 59 0.453045 -0.423816 -0.784303
-1.81747 1.33887 1.40592 167 75 59 0.460487 -0.483594 -0.744371
-1.8218 1.2243 1.40592 166 74 57 0.50669 -0.470142 -0.722656
-1.8209 1.22546 1.40592 173 68 48 0.498172 -0.213502 -0.840382
-1.81487 1.34096 1.40592 162 73 59 0.227865 -0.241675 -0.943224
-1.75691 1.28762 1.40592 104 50 55 0.856646 0.441303 -0.267225
-1.82004 1.22731 1.40592 173 68 48 0.549555 0.057626 -0.833468
-1.79678 1.2533 1.40592 131 93 93 -0.386214 -0.783741 -0.486404
-1.81393 1.34189 1.40592 162 73 59 0.28875 -0.243233 -0.925992
-1.82089 1.23033 1.40592 173 68 48 0.565441 0.385155 -0.729337
-1.75758 1.28902 1.40592 100 47 54 0.858 0.394216 -0.329286
-1.81238 1.3449 1.40592 162 73 59 0.207344 -0.015229 -0.97815
-1.81789 1.34715 1.40592 162 73 59 -0.206979 0.279213 -0.937657
-1.79846 1.25445 1.40592 131 93 93 -0.487649 -0.717327 -0.497635
-1.81673 1.34792 1.40592 162 73 59 -0.059713 0.375527 -0.924886
-1.82833 1.23636 1.40592 168 78 66 0.511927 0.666345 -0.542139
-1.81409 1.34792 1.40592 162 73 59 0.137193 0.316496 -0.938621
-1.82995 1.23775 1.40592 168 78 66 0.670715 0.522788 -0.52615
-1.81487 1.34808 1.40592 162 73 59 0.056805 0.201839 -0.97777
-1.83306 1.24239 1.40592 175 72 57 0.696681 0.402122 -0.594082
-1.83387 1.2454 1.40592 175 72 57 0.727032 0.117455 -0.676482
-1.77568 1.24842 1.4053 118 69 82 0.015339 -0.712579 -0.701424
-1.75457 1.28158 1.40545 108 51 56 0.77784 0.520171 -0.352685
-1.75155 1.27857 1.4059 108 51 56 0.6695 0.633132 -0.388475
-1.83598 1.24842 1.40398 175 72 57 0.70116 0.092219 -0.707015
-1.77266 1.24842 1.40545 118 69 82 -0.151868 -0.771371 -0.617999
-1.83598 1.25143 1.40359 175 72 57 0.624318 -0.129632 -0.77034
-1.76964 1.24842 1.40404 118 69 82 -0.099665 -0.888566 -0.447792
-1.83296 1.25143 1.40579 175 72 57 0.579734 -0.252946 -0.774549
-1.83296 1.25445 1.4048 175 72 57 0.534202 -0.285223 -0.795787
-1.83296 1.25746 1.40356 174 77 63 0.525683 -0.321162 -0.787726
-1.82995 1.25746 1.40566 174 77 63 0.572924 -0.228238 -0.787188
-1.82995 1.26048 1.4049 174 77 63 0.597588 -0.402254 -0.693599
-1.82693 1.26349 1.40442 173 76 61 0.469991 -0.715782 -0.516492
-1.81487 1.26349 1.40374 140 97 99 -0.300137 -0.900412 -0.314922
-1.79075 1.25143 1.40434 125 80 89 -0.32251 -0.896192 -0.304676
-1.77869 1.24842 1.40573 141 103 102 -0.090305 -0.832817 -0.546133
-1.76663 1.24842 1.40402 120 76 83 0.046157 -0.924455 -0.378486
-1.76362 1.24842 1.40486 120 76 83 0.091596 -0.941187 -0.325234
-1.85407 1.31174 1.40299 162 68 52 0.40422 0.22358 -0.886915
-1.85407 1.31475 1.40374 162 68 52 0.424413 0.235452 -0.87432
-1.85407 1.31777 1.40462 165 73 58 0.468961 0.25985 -0.844129
-1.85407 1.32078 1.40576 165 73 58 0.565359 0.297809 -0.769207
-1.75457 1.25445 1.40419 110 64 82 0.772387 -0.573367 -0.273257
-1.75155 1.25746 1.40559 102 58 76 0.685314 -0.315925 -0.656152
-1.75457 1.26048 1.40304 102 58 76 0.365926 0.001266 -0.930643
-1.75155 1.26048 1.40418 102 58 74 0.453913 -0.241379 -0.857729
-1.75155 1.26349 1.40362 97 54 70 0.276155 -0.172767 -0.945457
-1.75155 1.26651 1.40303 97 53 69 0.162068 -0.258505 -0.952318
-1.74854 1.26349 1.40434 100 54 70 0.465847 -0.277032 -0.840381
-1.74854 1.26651 1.40333 99 52 69 0.488583 -0.229832 -0.841703
-1.74854 1.27254 1.40309 91 44 62 0.759802 0.444722 -0.474261
-1.76362 1.29896 1.40592 131 62 61 0.646049 0.738562 -0.192735
-1.76839 1.30269 1.40592 131 62 61 0.670261 0.742124 -0.001382
-1.82392 1.2334 1.40592 168 78 66 0.495087 0.659557 -0.565574
-1.78774 1.36487 1.40592 175 57 38 -0.232626 -0.967368 -0.100423
-1.78171 1.36357 1.40592 175 57 38 -0.221592 -0.973292 -0.059989
-1.77796 1.36299 1.40592 175 57 38 -0.083458 -0.996081 0.029265
-1.78184 1.30872 1.40592 156 70 58 -0.039462 0.877679 -0.477621
-1.83598 1.29993 1.40592 166 68 53 0.05853 0.125093 -0.990417
-1.83172 1.32681 1.40592 162 73 59 -0.233086 -0.06043 -0.970577
-1.83128 1.33284 1.40592 162 73 59 -0.365264 0.06774 -0.928436
-1.77568 1.30731 1.40592 156 70 58 0.340325 0.821529 -0.45746
-1.78045 1.30872 1.40592 156 70 58 0.245753 0.850213 -0.465557
-1.8418 1.30269 1.40592 166 68 53 0.049702 0.144482 -0.988258
-1.78171 1.30889 1.40592 156 70 58 0.001323 0.87996 -0.475046
-1.84804 1.31277 1.40592 161 68 52 0.306641 0.197427 -0.931125
-1.84926 1.31475 1.40592 161 68 52 0.398849 0.266401 -0.877468
-1.84201 1.30276 1.40592 163 70 54 0.214738 0.118169 -0.969497
-1.84522 1.30872 1.40592 163 70 54 0.234726 0.128386 -0.963546
-1.82888 1.32681 1.40592 162 73 59 0.211856 -0.193202 -0.958014
-1.85371 1.32078 1.40592 166 75 58 0.382874 0.330594 -0.862621
-1.85407 1.32112 1.40592 167 78 60 0.511588 0.384909 -0.768194
-1.82995 1.33588 1.40592 162 73 59 -0.264612 0.144938 -0.953401
-1.82818 1.33887 1.40592 162 73 59 -0.241098 0.187222 -0.952271
-1.82995 1.32634 1.40592 161 67 53 0.001104 -0.140185 -0.990125
-1.82392 1.34235 1.40592 162 73 59 -0.156913 0.266887 -0.950868
-1.82082 1.3449 1.40592 162 73 59 -0.200991 0.179973 -0.962919
-1.76964 1.30359 1.40592 156 70 58 0.583544 0.794646 -0.167373
-1.7998 1.3686 1.40592 176 63 42 -0.258172 -0.950233 -0.174367
-1.80227 1.36902 1.40592 176 63 42 -0.201974 -0.950228 -0.237218
-1.80583 1.36956 1.40592 154 53 39 -0.175867 -0.934725 -0.308805
-1.79377 1.36671 1.40592 173 70 51 -0.292534 -0.942911 -0.159193
-1.77568 1.36271 1.40592 168 54 38 -0.130788 -0.98511 0.11159
-1.75831 1.29063 1.40592 116 55 57 0.852243 0.497757 -0.160996
-1.76197 1.29666 1.40592 152 71 61 0.84665 0.522889 -0.098847
-1.82392 1.23033 1.40357 154 67 52 0.497943 0.248201 -0.830933
-1.76362 1.29666 1.40078 131 62 61 0.744782 0.572784 -0.342372
-1.82995 1.32681 1.40585 162 73 59 -0.001034 -0.061026 -0.998136
-1.76964 1.30269 1.40342 131 62 61 0.501102 0.762263 -0.409696
-1.85407 1.27857 1.40232 165 65 50 0.070055 0.212622 -0.97462
-1.82995 1.33284 1.40552 162 73 59 -0.032289 -0.034373 -0.998887
-1.83598 1.24239 1.40263 163 83 73 0.680436 0.323167 -0.657701
-1.8601 1.2846 1.40152 165 65 50 0.188387 -0.058796 -0.980333
-1.82392 1.33284 1.40533 162 73 59 -0.015496 -0.042356 -0.998982
-1.85407 1.2846 1.40278 165 65 50 0.181392 -0.019641 -0.983215
-1.82392 1.33887 1.40496 162 73 59 0.011251 0.035799 -0.999296
-1.82995 1.23636 1.40438 168 78 66 0.547436 0.490516 -0.678017
-1.84804 1.27857 1.40257 165 65 50 -0.084179 0.286209 -0.954462
-1.84804 1.2846 1.40376 165 65 50 0.050794 0.114005 -0.992181
-1.81789 1.33887 1.40575 168 75 59 0.03551 -0.003044 -0.999365
-1.8601 1.29063 1.40077 165 65 50 0.20306 -0.114773 -0.972417
-1.85407 1.29063 1.40209 165 65 50 0.221724 -0.073082 -0.972367
-1.78171 1.30872 1.40559 156 70 58 -0.006723 0.861949 -0.50695
-1.81789 1.3449 1.40529 162 73 59 0.006951 0.010923 -0.999916
-1.84804 1.29063 1.40338 165 65 50 0.181796 -0.022001 -0.98309
-1.84201 1.27857 1.40159 163 66 50 -0.18755 0.334206 -0.923651
-1.84201 1.2846 1.40376 163 66 50 -0.124261 0.22162 -0.967184
-1.8601 1.29666 1.39992 166 68 52 0.274869 -0.134115 -0.952082
-1.83598 1.2846 1.40222 163 66 50 -0.291483 0.321075 -0.901082
-1.7998 1.36902 1.40439 176 63 42 -0.286388 -0.934603 -0.210949
-1.84201 1.29063 1.40434 163 66 50 0.034609 0.117225 -0.992502
-1.83598 1.29063 1.40445 163 66 50 -0.255649 0.261299 -0.930788
-1.85407 1.29666 1.40171 161 63 46 0.314667 -0.018805 -0.949016
-1.84804 1.29666 1.40352 164 65 49 0.235711 0.073582 -0.969034
-1.85407 1.30269 1.40187 161 65 49 0.447499 0.033596 -0.893653
-1.84804 1.30269 1.4047 161 66 51 0.288286 0.120894 -0.949882
-1.84201 1.29666 1.40474 166 68 53 0.161033 0.119238 -0.97972
-1.83598 1.29666 1.40558 166 68 53 -0.177114 0.227719 -0.957484
-1.84201 1.30269 1.40591 166 68 53 0.187113 0.187113 -0.964353
-1.84804 1.30872 1.40515 162 70 53 0.394562 0.10937 -0.912337
-1.82975 1.24842 1.40893 175 74 60 0.59302 -0.264091 -0.760647
-1.82837 1.25143 1.40893 175 74 60 0.603129 -0.242818 -0.759786
-1.82205 1.32681 1.40893 168 75 58 0.650394 -0.29067 -0.701783
-1.76964 1.24707 1.40893 130 88 92 0.108738 -0.985814 -0.127857
-1.82736 1.25445 1.40893 175 74 60 0.625895 -0.264619 -0.733644
-1.8209 1.32871 1.40893 168 75 58 0.652048 -0.403175 -0.642093
-1.76663 1.24738 1.40893 130 88 92 0.095339 -0.9913 -0.090745
-1.82026 1.32983 1.40893 168 75 58 0.709525 -0.297647 -0.638734
-1.82693 1.25498 1.40893 177 76 61 0.645917 -0.43228 -0.629226
-1.82564 1.25746 1.40893 176 78 63 0.812778 -0.283454 -0.508965
-1.81914 1.33284 1.40893 168 75 58 0.696339 -0.376978 -0.610737
-1.82494 1.26048 1.40893 172 80 68 0.68461 -0.318837 -0.655478
-1.81789 1.33457 1.40893 168 75 59 0.67337 -0.49873 -0.545749
-1.82392 1.26176 1.40893 174 78 63 0.506218 -0.549945 -0.664307
-1.81677 1.33586 1.40893 167 75 59 0.683672 -0.549947 -0.479741
-1.81186 1.25973 1.40893 145 93 93 -0.431373 -0.631236 -0.644561
-1.81487 1.33793 1.40893 167 75 59 0.626821 -0.660074 -0.414001
-1.81949 1.22128 1.40893 172 78 61 0.484903 -0.672824 -0.558729
-1.81287 1.26048 1.40893 145 93 93 -0.355196 -0.760671 -0.543337
-1.81789 1.22294 1.40893 174 68 49 0.51459 -0.578703 -0.632693
-1.81675 1.2243 1.40893 168 73 55 0.574798 -0.288195 -0.765866
-1.81547 1.22731 1.40893 178 75 56 0.571352 0.023518 -0.820368
-1.82208 1.26349 1.40893 163 89 80 0.368279 -0.728375 -0.577789
-1.81691 1.23033 1.40893 178 75 56 0.534504 0.329049 -0.778481
-1.76362 1.24761 1.40893 125 79 87 0.208393 -0.976916 -0.046979
-1.82693 1.23771 1.40893 168 78 66 0.584103 0.573944 -0.573944
-1.82841 1.23937 1.40893 168 78 66 0.62934 0.416792 -0.655908
-1.82544 1.23636 1.40893 168 78 66 0.547928 0.649084 -0.527697
-1.82392 1.3221 1.40893 169 77 59 0.52128 -0.149148 -0.840251
-1.82995 1.24238 1.40893 168 78 66 0.641895 0.333135 -0.690646
-1.82337 1.3238 1.40893 169 77 59 0.632216 -0.250679 -0.733118
-1.81789 1.23124 1.40893 168 78 66 0.477477 0.661766 -0.577998
-1.81789 1.26258 1.40893 149 94 91 -0.233455 -0.728569 -0.643961
-1.81922 1.26349 1.40893 149 94 91 -0.272608 -0.78946 -0.549943
-1.8209 1.2637 1.40893 149 94 91 0.001211 -0.960094 -0.279674
-1.82995 1.24239 1.40893 175 72 57 0.686232 0.111161 -0.718839
-1.83044 1.2454 1.40893 175 72 57 0.673576 0.058884 -0.736769
-1.81337 1.33887 1.40893 167 75 59 0.526963 -0.71647 -0.457144
-1.81487 1.26152 1.40893 139 99 101 -0.337413 -0.818979 -0.464141
-1.82995 1.24788 1.40893 175 72 57 0.649613 -0.146201 -0.746075
-1.81186 1.34 1.40893 162 73 59 0.671318 -0.631732 -0.387616
-1.79377 1.25049 1.40893 131 93 93 -0.244465 -0.903203 -0.352791
-1.79661 1.25143 1.40893 131 93 93 -0.330913 -0.832772 -0.443832
-1.7616 1.24842 1.40893 113 64 80 0.296738 -0.954777 0.018624
-1.79678 1.2515 1.40893 131 93 93 -0.28057 -0.813497 -0.509415
-1.7606 1.24887 1.40893 115 66 79 0.423244 -0.902646 0.078074
-1.75758 1.25037 1.40893 115 66 79 0.555009 -0.831835 0.004071
-1.79075 1.24975 1.40893 131 100 96 -0.236524 -0.909821 -0.341001
-1.78774 1.24897 1.40893 137 102 100 -0.248125 -0.902942 -0.350899
-1.75635 1.25143 1.40893 111 63 77 0.63154 -0.770914 -0.082754
-1.78472 1.24796 1.40893 133 103 98 -0.218586 -0.929343 -0.297559
-1.81054 1.34189 1.40893 167 81 66 0.782087 -0.443887 -0.437383
-1.75457 1.25305 1.40893 110 60 77 0.542578 -0.803762 -0.244082
-1.78591 1.24842 1.40893 133 103 98 -0.255383 -0.899006 -0.355764
-1.80918 1.3449 1.40893 167 81 66 0.713241 -0.286899 -0.639513
-1.75187 1.25445 1.40893 111 63 77 0.436927 -0.837835 -0.327304
-1.80884 1.3461 1.40893 167 80 66 0.758448 -0.161984 -0.631283
-1.75155 1.25462 1.40893 108 64 80 0.571473 -0.642275 -0.510785
-1.78171 1.24722 1.40893 133 103 98 -0.178389 -0.936195 -0.302846
-1.74854 1.2574 1.40893 100 55 70 0.714513 -0.501325 -0.488001
-1.74849 1.25746 1.40893 100 55 70 0.875414 -0.386881 -0.289782
-1.74718 1.26048 1.40893 100 55 70 0.914794 -0.282702 -0.288501
-1.77869 1.2467 1.40893 138 104 101 -0.155184 -0.921316 -0.356503
-1.74647 1.26349 1.40893 102 59 72 0.989012 -0.075719 -0.126976
-1.77568 1.24624 1.40893 140 105 102 -0.036387 -0.954847 -0.294861
-1.74672 1.26651 1.40893 101 57 72 0.998859 -0.046387 -0.011339
-1.80857 1.34792 1.40893 167 80 66 0.77361 -0.076638 -0.62901
-1.77266 1.24669 1.40893 132 97 96 0.115218 -0.971123 -0.208912
-1.80884 1.35041 1.40893 167 80 66 0.611151 0.018016 -0.791309
-1.74611 1.26953 1.40893 94 45 61 0.999776 0.002996 0.020974
-1.74672 1.27254 1.40893 94 45 61 0.943392 0.313575 -0.108083
-1.8091 1.35093 1.40893 167 80 66 0.433248 0.420363 -0.79724
-1.75664 1.28762 1.40893 104 50 55 0.812655 0.575088 -0.094158
-1.75758 1.28902 1.40893 100 47 54 0.861926 0.503831 0.056907
-1.82995 1.24842 1.40877 175 74 60 0.58966 -0.215125 -0.778475
-1.82392 1.32681 1.40734 168 75 58 0.411475 -0.345764 -0.843289
-1.82995 1.25143 1.40794 175 74 60 0.564745 -0.248738 -0.786888
-1.82392 1.32983 1.40612 168 75 58 0.542014 -0.303591 -0.783615
-1.82995 1.25445 1.40667 175 74 60 0.564322 -0.359409 -0.743213
-1.8209 1.32983 1.40826 168 75 58 0.593076 -0.32805 -0.735285
-1.82392 1.3238 1.4085 169 77 59 0.38403 -0.241687 -0.891128
-1.8209 1.2243 1.4067 166 74 57 0.445479 -0.42928 -0.785663
-1.8209 1.33284 1.40687 168 75 58 0.599128 -0.397768 -0.694857
-1.81789 1.2243 1.40813 174 68 49 0.481857 -0.335551 -0.809456
-1.82693 1.25746 1.4073 177 76 61 0.586477 -0.270317 -0.763527
-1.81789 1.33586 1.40738 168 75 59 0.569046 -0.481759 -0.666405
-1.82693 1.26048 1.40684 175 76 61 0.666002 -0.219921 -0.712794
-1.81789 1.22731 1.40734 173 68 48 0.548356 -0.054695 -0.834455
-1.81789 1.23033 1.40823 173 68 48 0.557887 0.262443 -0.787328
-1.82392 1.26349 1.40711 174 78 63 0.420499 -0.764098 -0.489219
-1.81487 1.33887 1.40761 167 75 59 0.523754 -0.564172 -0.638272
-1.74854 1.25746 1.40885 100 55 70 0.682637 -0.528331 -0.50485
-1.81186 1.34189 1.40719 162 73 59 0.56765 -0.447794 -0.690835
-1.81186 1.3449 1.40618 162 73 59 0.684928 -0.139996 -0.715035
-1.82693 1.23636 1.40731 168 78 66 0.549808 0.654053 -0.519544
-1.82995 1.23937 1.4074 168 78 66 0.633047 0.468488 -0.616255
-1.81186 1.26048 1.4082 145 93 93 -0.375871 -0.720557 -0.582682
-1.83296 1.24239 1.40601 175 72 57 0.685011 0.273046 -0.67543
-1.81789 1.34792 1.40619 162 73 59 -0.226319 0.332992 -0.915367
-1.83296 1.2454 1.4067 175 72 57 0.644897 0.012482 -0.764168
-1.74854 1.26048 1.40612 100 55 70 0.822907 -0.378949 -0.423345
-1.81789 1.26349 1.40725 149 94 91 -0.310775 -0.887284 -0.340801
-1.83296 1.24842 1.4065 175 72 57 0.593629 -0.148033 -0.791006
-1.81186 1.34792 1.4065 162 73 59 0.494027 0.138444 -0.858353
-1.81789 1.35093 1.40738 162 73 59 -0.067912 0.225963 -0.971766
-1.81487 1.35093 1.40744 162 73 59 0.097836 0.400991 -0.910843
-1.81186 1.35093 1.40749 162 73 59 0.279171 0.384804 -0.879767
-1.79377 1.25143 1.40679 131 93 93 -0.333355 -0.840431 -0.427258
-1.78472 1.24842 1.40827 133 103 98 -0.207511 -0.867366 -0.452344
-1.78171 1.24842 1.40676 133 103 98 -0.18888 -0.858142 -0.477406
-1.82392 1.35093 1.40879 168 73 56 -0.185884 0.180684 -0.965816
-1.80884 1.34792 1.40858 167 80 66 0.548585 0.105664 -0.829391
-1.76964 1.24682 1.41195 136 98 98 0.135565 -0.989966 -0.039872
-1.8262 1.24842 1.41195 177 76 63 0.549848 -0.196483 -0.811826
-1.82548 1.25143 1.41195 177 76 63 0.683749 -0.104851 -0.722145
-1.81883 1.32681 1.41195 169 75 58 0.616632 -0.226358 -0.754008
-1.81789 1.32911 1.41195 169 75 58 0.734648 -0.275692 -0.619909
-1.82512 1.25445 1.41195 173 81 69 0.781478 -0.188105 -0.594902
-1.81772 1.32983 1.41195 168 75 59 0.81168 -0.27056 -0.517661
-1.81657 1.33284 1.41195 168 75 59 0.76464 -0.40596 -0.500521
-1.82461 1.25746 1.41195 175 77 63 0.826257 -0.231475 -0.513536
-1.76663 1.24718 1.41195 136 98 98 0.16093 -0.98696 0.003376
-1.81487 1.33581 1.41195 167 75 59 0.778547 -0.450224 -0.437222
-1.76362 1.2479 1.41195 130 88 92 0.274261 -0.960538 0.046336
-1.81483 1.33586 1.41195 167 75 59 0.779609 -0.543654 -0.310887
-1.81195 1.33887 1.41195 167 75 59 0.630041 -0.682681 -0.370128
-1.81186 1.33897 1.41195 162 73 59 0.71979 -0.64702 -0.251531
-1.82034 1.32078 1.41195 169 77 59 0.615376 0.040837 -0.787175
-1.82392 1.25855 1.41195 175 77 63 0.486155 -0.536274 -0.689973
-1.81992 1.3238 1.41195 169 77 59 0.61585 -0.155092 -0.772448
-1.80935 1.34189 1.41195 167 80 65 0.789883 -0.595035 -0.148384
-1.80884 1.34284 1.41195 168 82 68 0.877302 -0.41698 -0.237634
-1.8209 1.2592 1.41195 145 93 93 0.104355 -0.496045 -0.862003
-1.80794 1.3449 1.41195 167 81 66 0.835429 -0.457534 -0.304502
-1.81789 1.25954 1.41195 145 93 93 -0.053002 -0.441686 -0.895603
-1.76228 1.24842 1.41195 113 64 80 0.364905 -0.929919 0.045777
-1.80643 1.34792 1.41195 167 80 66 0.805461 -0.332034 -0.490902
-1.81186 1.2568 1.41195 145 93 93 -0.402863 -0.554142 -0.728442
-1.80583 1.34914 1.41195 167 80 66 0.754947 -0.21948 -0.617967
-1.7606 1.24905 1.41195 118 71 81 0.399773 -0.916201 0.027525
-1.8129 1.25746 1.41195 145 93 93 -0.323547 -0.574657 -0.751723
-1.75758 1.25049 1.41195 114 64 77 0.47335 -0.879859 0.042288
-1.81487 1.25847 1.41195 145 93 93 -0.212813 -0.537392 -0.81604
-1.75628 1.25143 1.41195 112 64 77 0.506591 -0.861614 -0.031406
-1.75457 1.25241 1.41195 111 63 77 0.380955 -0.90887 -0.169789
-1.75155 1.25328 1.41195 110 65 77 0.299891 -0.902627 -0.308755
-1.74854 1.25444 1.41195 116 73 81 0.332981 -0.853359 -0.401125
-1.74854 1.25445 1.41195 116 73 81 0.77784 -0.352685 -0.520171
-1.78774 1.24789 1.41195 131 93 93 -0.255891 -0.952557 -0.164788
-1.78957 1.24842 1.41195 131 93 93 -0.247148 -0.936929 -0.247148
-1.79678 1.25017 1.41195 131 93 93 -0.148189 -0.887694 -0.435934
-1.74751 1.25746 1.41195 100 55 70 0.899005 -0.318428 -0.300656
-1.79377 1.24942 1.41195 131 93 93 -0.216368 -0.91849 -0.331
-1.74619 1.26048 1.41195 100 55 70 0.967356 -0.13489 -0.21454
-1.79075 1.24873 1.41195 126 99 93 -0.210704 -0.926248 -0.31252
-1.81789 1.22113 1.41195 141 64 49 0.452792 -0.818204 -0.35429
-1.81759 1.22128 1.41195 168 73 55 0.382266 -0.810916 -0.443045
-1.74643 1.26349 1.41195 103 61 72 0.99004 0.032813 -0.136908
-1.74668 1.26651 1.41195 102 59 72 0.98858 0.044883 -0.143856
-1.81487 1.22288 1.41195 168 73 55 0.404269 -0.721084 -0.562676
-1.78472 1.24702 1.41195 133 103 98 -0.200484 -0.963109 -0.179518
-1.81216 1.2243 1.41195 168 73 55 0.378429 -0.561909 -0.735561
-1.78171 1.24658 1.41195 133 104 98 -0.10883 -0.988833 -0.101809
-1.7468 1.26953 1.41195 95 47 63 0.997816 -0.064138 -0.015772
-1.77869 1.2463 1.41195 138 104 101 -0.13984 -0.990067 -0.014543
-1.81186 1.22445 1.41195 178 75 56 0.278212 -0.255384 -0.925947
-1.77568 1.24573 1.41195 138 104 101 0.025268 -0.999619 0.011118
-1.81186 1.23027 1.41195 178 75 56 0.360738 0.300363 -0.882978
-1.74651 1.27254 1.41195 93 44 60 0.994806 0.097401 -0.029549
-1.81195 1.23033 1.41195 178 75 56 0.391726 0.469104 -0.791512
-1.77266 1.24629 1.41195 132 97 96 0.161083 -0.9862 -0.038243
-1.80944 1.22731 1.41195 158 65 48 0.339875 0.042646 -0.939503
-1.82392 1.23773 1.41195 168 78 66 0.576399 0.535832 -0.616967
-1.82519 1.23937 1.41195 168 78 66 0.608872 0.30042 -0.734181
-1.82643 1.24239 1.41195 168 78 66 0.5915 0.187996 -0.784082
-1.81487 1.23212 1.41195 168 78 66 0.355585 0.634154 -0.686591
-1.81735 1.23334 1.41195 168 78 66 0.34838 0.685311 -0.639515
-1.75758 1.28847 1.41195 100 47 54 0.753781 0.647156 -0.11403
-1.81789 1.23362 1.41195 168 78 66 0.340543 0.672939 -0.656645
-1.82241 1.23636 1.41195 168 78 66 0.488903 0.566187 -0.663631
-1.82693 1.24292 1.41195 175 70 53 0.605064 0.188412 -0.773562
-1.82752 1.2454 1.41195 175 70 53 0.713977 0.001381 -0.700167
-1.82693 1.24738 1.41195 175 69 52 0.582741 -0.207573 -0.785701
-1.80518 1.35093 1.41195 165 79 66 0.805145 -0.112926 -0.582227
-1.76362 1.36436 1.41195 172 57 36 0.065973 -0.914192 0.399875
-1.8209 1.23531 1.41195 171 65 49 0.457428 0.713587 -0.530616
-1.82693 1.24842 1.41134 175 74 60 0.65261 -0.272852 -0.706861
-1.82693 1.25143 1.41025 175 74 60 0.735006 -0.18567 -0.652145
-1.8209 1.32681 1.41024 168 75 58 0.661142 -0.294377 -0.690097
-1.82693 1.25445 1.40946 175 70 56 0.774611 -0.291076 -0.561474
-1.81789 1.32983 1.41166 169 75 58 0.718479 -0.283231 -0.63527
-1.82392 1.26048 1.41007 175 77 63 0.539476 -0.509225 -0.670564
-1.81789 1.33284 1.41016 168 74 58 0.719181 -0.34736 -0.601764
-1.82392 1.32078 1.40904 169 77 59 0.396639 0.024872 -0.917638
-1.8209 1.32078 1.4116 169 77 59 0.622889 0.043786 -0.781084
-1.8209 1.26048 1.41131 145 93 93 0.106403 -0.569913 -0.814787
-1.8209 1.3238 1.41111 169 77 59 0.651091 -0.192403 -0.734209
-1.81789 1.26048 1.41135 145 93 93 -0.139947 -0.675657 -0.723811
-1.81487 1.33586 1.41187 167 75 59 0.69543 -0.558679 -0.451946
-1.81186 1.25746 1.41129 145 93 93 -0.443199 -0.630513 -0.637203
-1.81487 1.26048 1.41028 145 93 93 -0.326818 -0.665018 -0.671522
-1.75155 1.25445 1.40936 110 65 77 0.383268 -0.84319 -0.377011
-1.8209 1.26349 1.40935 143 97 96 0.001366 -0.594083 -0.804402
-1.74854 1.25445 1.41194 116 73 81 0.698851 -0.525389 -0.485359
-1.78774 1.24842 1.41036 131 93 93 -0.256837 -0.912715 -0.317782
-1.79678 1.25143 1.40906 131 93 93 -0.24177 -0.888467 -0.390095
-1.80884 1.3449 1.40954 168 82 68 0.862421 -0.356385 -0.359471
-1.80884 1.35093 1.40912 167 80 66 0.40177 0.336618 -0.851628
-1.80583 1.35093 1.41114 167 80 66 0.500118 0.126117 -0.856724
-1.81789 1.22128 1.41151 141 64 49 0.511588 -0.768194 -0.384909
-1.81487 1.2243 1.41053 168 73 55 0.506618 -0.414804 -0.755828
-1.81487 1.22731 1.40931 178 75 56 0.493698 -0.031281 -0.869071
-1.81186 1.22731 1.41098 178 75 56 0.446617 -0.017229 -0.894559
-1.81487 1.23033 1.41031 178 75 56 0.477722 0.399991 -0.782169
-1.82693 1.23937 1.41033 168 78 66 0.619502 0.435822 -0.652898
-1.82392 1.23636 1.41052 168 78 66 0.502061 0.70889 -0.495389
-1.82995 1.24239 1.40893 168 78 66 0.679502 0.172548 -0.713095
-1.82693 1.24239 1.41151 168 78 66 0.624222 0.329135 -0.708532
-1.81789 1.23334 1.41157 168 78 66 0.397236 0.7203 -0.568658
-1.82995 1.2454 1.40936 175 72 57 0.705724 -0.001381 -0.708486
-1.76362 1.29745 1.41195 131 62 61 0.72843 0.675021 0.117202
-1.76813 1.30269 1.41195 131 62 61 0.765838 0.63844 0.076729
-1.81186 1.3052 1.41195 161 67 53 0.159033 0.758817 -0.63159
-1.81186 1.35891 1.41195 179 69 48 0.214282 0.34659 -0.913214
-1.81788 1.30872 1.41195 161 67 53 0.365559 0.624564 -0.690135
-1.78774 1.36431 1.41195 175 57 38 -0.191276 -0.961655 -0.196552
-1.78171 1.36333 1.41195 175 57 38 -0.105413 -0.99042 -0.089196
-1.77568 1.36335 1.41195 175 57 38 0.015557 -0.998789 0.046672
-1.80583 1.35651 1.41195 173 70 51 0.662609 0.169079 -0.729631
-1.76964 1.36386 1.41195 172 67 48 0.154504 -0.98177 0.110708
-1.80777 1.35696 1.41195 173 70 51 0.264339 0.319836 -0.909852
-1.80583 1.36854 1.41195 169 62 43 -0.017757 -0.542259 -0.840024
-1.7998 1.36763 1.41195 169 62 43 -0.198918 -0.818447 -0.539051
-1.79377 1.36531 1.41195 173 70 51 -0.164284 -0.851021 -0.498772
-1.78774 1.31215 1.41195 141 65 59 -0.147955 0.856969 -0.493673
-1.78171 1.31216 1.41195 156 70 58 0.206168 0.893394 -0.399176
-1.77568 1.30956 1.41195 156 70 58 0.4963 0.851857 -0.167409
-1.76964 1.30411 1.41195 156 70 58 0.673576 0.736769 -0.058884
-1.77472 1.30872 1.41195 156 70 58 0.665751 0.736922 -0.117137
-1.75877 1.29063 1.41195 108 51 56 0.789562 0.606349 0.094515
-1.7632 1.29666 1.41195 153 73 63 0.802966 0.570091 0.1739
-1.81789 1.30873 1.41195 161 67 53 0.578782 0.183813 -0.794496
-1.81934 1.31475 1.41195 161 67 53 0.602308 0.100628 -0.791896
-1.83598 1.30269 1.40616 166 68 53 0.016498 0.115485 -0.993172
-1.77568 1.36299 1.40702 175 57 38 -0.038858 -0.993663 0.105473
-1.84804 1.32681 1.40973 170 70 52 0.044883 0.143856 -0.98858
-1.84804 1.31475 1.40652 161 68 52 0.226359 0.282597 -0.932148
-1.76964 1.36299 1.40894 172 67 48 -0.022947 -0.969816 0.242756
-1.84201 1.30872 1.40679 163 70 54 0.070899 0.129014 -0.989105
-1.83598 1.30872 1.40694 163 70 54 0.001071 0.10173 -0.994811
-1.76362 1.36299 1.40914 172 67 48 0.016781 -0.925561 0.378228
-1.84201 1.31475 1.40767 163 70 54 0.055096 0.158253 -0.98586
-1.77568 1.30872 1.40925 156 70 58 0.481107 0.833815 -0.270719
-1.83598 1.31475 1.40742 163 70 54 -0.054869 0.048414 -0.997319
-1.84804 1.32078 1.40835 166 75 58 0.172728 0.242354 -0.954688
-1.84201 1.32078 1.40856 163 70 54 -0.109056 0.104366 -0.988542
-1.83598 1.32078 1.40754 163 70 54 -0.16093 0.003376 -0.98696
-1.84201 1.32681 1.40924 170 70 52 -0.160055 0.10874 -0.9811
-1.84201 1.33284 1.4097 170 70 52 -0.14157 0.049492 -0.98869
-1.83598 1.32681 1.40756 170 70 52 -0.294597 0.044253 -0.954596
-1.83598 1.33284 1.40792 170 70 52 -0.303778 0.093369 -0.948157
-1.83598 1.33887 1.40885 170 70 52 -0.235235 0.131264 -0.963034
-1.82995 1.30872 1.40691 161 67 53 0.123322 0.068 -0.990034
-1.82392 1.30872 1.40811 161 67 53 0.365978 0.150037 -0.918449
-1.82995 1.31475 1.40702 161 67 53 0.117908 0.018733 -0.992848
-1.82392 1.31475 1.4084 161 67 53 0.409632 0.066244 -0.909842
-1.81789 1.30269 1.40738 161 67 53 -0.02099 0.687088 -0.726271
-1.82995 1.33887 1.40667 162 73 59 -0.275374 0.258253 -0.925999
-1.81789 1.30872 1.41194 161 67 53 0.406507 0.337977 -0.848837
-1.82995 1.3449 1.40895 162 73 59 -0.202345 0.168403 -0.964726
-1.82392 1.3449 1.40695 162 73 59 -0.247318 0.244523 -0.937573
-1.82995 1.32078 1.4067 161 67 53 0.103745 -0.099082 -0.989656
-1.81789 1.35696 1.40913 179 69 48 0.255856 0.281584 -0.924796
-1.81186 1.35696 1.41075 179 69 48 0.242372 0.426033 -0.871637
-1.80583 1.36902 1.41026 169 62 43 -0.111868 -0.979767 -0.165958
-1.80583 1.23182 1.41496 172 65 48 0.309672 0.572814 -0.758938
-1.8082 1.23334 1.41496 172 65 48 0.341098 0.464846 -0.81705
-1.81186 1.23487 1.41496 172 65 48 0.160125 0.480374 -0.862323
-1.75758 1.25072 1.41496 114 71 80 0.459742 -0.884761 -0.076392
-1.75586 1.25143 1.41496 114 71 80 0.38787 -0.913372 -0.123729
-1.81789 1.21978 1.41496 155 57 43 0.328035 -0.881309 -0.340128
-1.80884 1.23377 1.41496 172 65 48 0.195659 0.473464 -0.858807
-1.75457 1.25185 1.41496 113 66 78 0.249535 -0.957212 -0.146552
-1.81487 1.22083 1.41496 142 54 40 0.299735 -0.840189 -0.451931
-1.75155 1.25253 1.41496 114 71 80 0.190416 -0.957409 -0.217048
-1.8137 1.22128 1.41496 142 54 40 0.234399 -0.834952 -0.497907
-1.74854 1.25299 1.41496 111 69 77 0.331639 -0.896763 -0.292972
-1.80583 1.24744 1.41496 138 97 93 -0.198929 -0.390598 -0.898811
-1.81186 1.2217 1.41496 169 75 58 0.139241 -0.771066 -0.621345
-1.80703 1.24842 1.41496 138 97 93 -0.36338 -0.388334 -0.846848
-1.74605 1.25445 1.41496 113 71 78 0.746769 -0.345037 -0.568582
-1.80884 1.22135 1.41496 176 74 56 0.16962 -0.704459 -0.689178
-1.74618 1.25746 1.41496 109 67 75 0.854037 -0.104781 -0.509551
-1.80583 1.22277 1.41496 169 75 57 0.141923 -0.790286 -0.596076
-1.74581 1.26048 1.41496 108 67 75 0.953448 -0.139626 -0.267285
-1.74585 1.26349 1.41496 104 61 71 0.977241 0.044366 -0.207439
-1.81487 1.23564 1.41496 171 65 49 0.179936 0.564001 -0.805932
-1.81702 1.23636 1.41496 171 65 49 0.224419 0.50227 -0.835081
-1.81789 1.23682 1.41496 173 66 50 0.359016 0.402913 -0.841884
-1.80281 1.24672 1.41496 130 99 97 0.13881 -0.509945 -0.848934
-1.82064 1.23937 1.41496 173 66 50 0.341198 0.409749 -0.845984
-1.8209 1.23955 1.41496 173 66 50 0.5238 0.334783 -0.783297
-1.82261 1.24239 1.41496 173 66 50 0.591421 0.151224 -0.792056
-1.82229 1.2454 1.41496 172 72 59 0.559109 -0.081507 -0.825078
-1.82189 1.24842 1.41496 176 76 61 0.558076 -0.054824 -0.827977
-1.82155 1.25143 1.41496 168 85 74 0.479766 -0.118867 -0.869307
-1.8209 1.25225 1.41496 152 108 101 0.2803 -0.294823 -0.913516
-1.81186 1.33833 1.41496 154 67 56 0.803053 -0.580395 -0.135079
-1.81789 1.25231 1.41496 160 99 90 -0.017145 -0.43391 -0.900793
-1.81143 1.33887 1.41496 154 67 56 0.791541 -0.59992 -0.116446
-1.80928 1.34189 1.41496 164 77 64 0.815057 -0.573558 -0.081937
-1.80884 1.34255 1.41496 163 77 64 0.837337 -0.537567 -0.099443
-1.80696 1.3449 1.41496 159 72 60 0.776757 -0.621112 -0.104253
-1.74603 1.26651 1.41496 104 61 71 0.961869 0.043552 -0.27002
-1.77266 1.24645 1.41496 137 106 101 0.083163 -0.992255 0.092276
-1.76964 1.24686 1.41496 137 106 101 0.13046 -0.989418 0.063498
-1.80583 1.34643 1.41496 159 75 64 0.799048 -0.557943 -0.224104
-1.76663 1.24724 1.41496 131 92 94 0.180062 -0.982691 0.043544
-1.746 1.26953 1.41496 99 54 65 0.98034 0.053734 -0.189859
-1.76362 1.24791 1.41496 131 92 94 0.265739 -0.963764 0.023267
-1.74668 1.27254 1.41496 96 48 62 0.973683 0.07281 -0.215963
-1.80467 1.34792 1.41496 159 74 62 0.781571 -0.528001 -0.332208
-1.81732 1.32078 1.41496 164 74 60 0.818586 0.037652 -0.573149
-1.80294 1.35093 1.41496 165 79 66 0.636853 -0.120245 -0.761551
-1.81666 1.3238 1.41496 164 74 60 0.826593 -0.156383 -0.540637
-1.75457 1.28722 1.41496 97 46 53 0.633451 0.663221 -0.398594
-1.75495 1.28762 1.41496 97 46 53 0.59061 0.750667 -0.296105
-1.81638 1.32681 1.41496 161 72 60 0.801336 -0.141237 -0.581303
-1.75758 1.28951 1.41496 97 46 53 0.617967 0.754947 -0.21948
-1.76228 1.24842 1.41496 118 77 84 0.364086 -0.931294 0.011497
-1.7606 1.24909 1.41496 118 76 82 0.401638 -0.915207 -0.032921
-1.81573 1.32983 1.41496 160 71 58 0.812456 -0.189826 -0.551255
-1.81487 1.33284 1.41496 163 74 62 0.820443 -0.266216 -0.505966
-1.81487 1.33285 1.41496 167 78 64 0.821215 -0.408225 -0.398695
-1.81361 1.33586 1.41496 158 71 60 0.834653 -0.467841 -0.290652
-1.81789 1.25445 1.41383 144 107 105 0.006415 -0.386156 -0.922411
-1.81487 1.25445 1.41419 144 107 105 -0.078471 -0.430904 -0.898979
-1.81789 1.25746 1.41283 144 107 105 -0.006441 -0.395465 -0.918458
-1.81487 1.22128 1.41414 142 54 40 0.359984 -0.804765 -0.471979
-1.81487 1.25746 1.41257 144 107 105 -0.153783 -0.481854 -0.862651
-1.81186 1.2243 1.41204 169 75 58 0.052856 -0.681415 -0.729986
-1.81186 1.25445 1.41358 144 107 105 -0.284706 -0.517504 -0.806928
-1.75155 1.2846 1.41466 98 46 53 0.5962 0.552287 -0.582688
-1.81186 1.23033 1.41199 172 65 48 0.328248 0.523596 -0.786194
-1.80884 1.23033 1.41324 172 65 48 0.318688 0.367483 -0.873724
-1.81186 1.33887 1.41231 154 67 56 0.749645 -0.636202 -0.182429
-1.81186 1.23334 1.41399 172 65 48 0.246801 0.538615 -0.805595
-1.80884 1.2243 1.4127 176 74 56 0.285018 -0.323415 -0.902312
-1.80884 1.23334 1.4147 172 65 48 0.221134 0.461824 -0.858963
-1.80583 1.2243 1.41357 169 75 57 0.171222 -0.321563 -0.931279
-1.80583 1.34792 1.41291 159 75 64 0.793337 -0.454028 -0.405555
-1.81789 1.32681 1.41277 161 73 60 0.762022 -0.181725 -0.621529
-1.80583 1.23033 1.41408 172 65 48 0.297731 0.2379 -0.924532
-1.80884 1.22731 1.41217 152 63 47 0.456324 0.079059 -0.886295
-1.80583 1.24842 1.41451 138 97 93 -0.174304 -0.510995 -0.841726
-1.80583 1.22731 1.4138 152 63 47 0.266083 0.166133 -0.949526
-1.80281 1.24842 1.41404 130 99 97 -0.020878 -0.613807 -0.78918
-1.82392 1.23937 1.41295 168 78 66 0.522597 0.37933 -0.763545
-1.82392 1.24239 1.41385 168 78 66 0.614287 0.132377 -0.777899
-1.8209 1.23636 1.41298 171 65 49 0.447781 0.50396 -0.738591
-1.81789 1.23636 1.4147 171 65 49 0.35134 0.645484 -0.678167
-1.81487 1.23334 1.41316 171 65 49 0.258429 0.638937 -0.724551
-1.80281 1.25143 1.41196 138 97 93 -0.159421 -0.543818 -0.823922
-1.8209 1.23937 1.41484 173 66 50 0.462129 0.465418 -0.754866
-1.82693 1.2454 1.41242 176 72 55 0.459279 -0.001316 -0.888291
-1.82392 1.2454 1.41381 176 72 55 0.527085 -0.034405 -0.849116
-1.82392 1.24842 1.41338 176 72 55 0.574766 -0.084991 -0.813892
-1.82392 1.25143 1.41353 176 78 65 0.592964 -0.085121 -0.800717
-1.82392 1.25445 1.41294 164 82 73 0.470638 -0.185583 -0.862589
-1.8209 1.25445 1.41418 152 108 101 0.116354 -0.357275 -0.926724
-1.82392 1.25746 1.41239 166 79 69 0.271284 -0.297397 -0.915402
-1.81789 1.32078 1.41396 168 78 63 0.691356 0.021035 -0.722208
-1.8209 1.25746 1.41278 150 104 98 0.030176 -0.397537 -0.91709
-1.81789 1.3238 1.4135 168 78 63 0.717668 -0.142932 -0.681559
-1.80583 1.23668 1.41798 173 66 53 0.473931 0.1502 -0.867658
-1.80645 1.23937 1.41798 173 66 53 0.460182 0.053255 -0.886226
-1.75758 1.24998 1.41798 115 71 80 0.402165 -0.912027 -0.080433
-1.81186 1.33757 1.41798 154 67 56 0.823222 -0.496423 -0.275445
-1.75487 1.25143 1.41798 115 71 80 0.458897 -0.872345 -0.168604
-1.81086 1.33887 1.41798 154 67 56 0.773949 -0.586325 -0.239221
-1.75457 1.25156 1.41798 114 71 80 0.15384 -0.976822 -0.148837
-1.80884 1.34114 1.41798 155 67 55 0.772933 -0.584795 -0.246147
-1.75155 1.25186 1.41798 114 75 81 0.14506 -0.969209 -0.198977
-1.80858 1.34189 1.41798 159 72 60 0.896392 -0.416029 -0.152973
-1.80706 1.3449 1.41798 156 69 58 0.808814 -0.56572 -0.160562
-1.74854 1.25231 1.41798 116 79 82 0.34474 -0.925354 -0.157715
-1.74552 1.25356 1.41798 113 72 79 0.541234 -0.840871 0.00135
-1.80583 1.2412 1.41798 173 66 53 0.211746 -0.195765 -0.957517
-1.74522 1.25445 1.41798 113 76 79 0.989223 -0.135051 -0.05656
-1.81487 1.21922 1.41798 128 45 32 0.229189 -0.870319 -0.435909
-1.80554 1.23636 1.41798 141 83 75 0.394043 0.491338 -0.776735
-1.81186 1.21997 1.41798 128 42 29 0.159798 -0.891125 -0.424688
-1.74478 1.25746 1.41798 110 72 76 0.99662 -0.080114 -0.018159
-1.80281 1.24164 1.41798 141 83 75 0.348503 -0.675737 -0.649558
-1.74478 1.26048 1.41798 110 72 76 0.987068 -0.049993 -0.152304
-1.80082 1.24239 1.41798 140 83 76 0.19985 -0.714192 -0.670813
-1.74455 1.26349 1.41798 106 65 74 0.919644 -0.161464 -0.358029
-1.80583 1.3462 1.41798 159 75 64 0.745441 -0.652448 -0.136489
-1.7998 1.24355 1.41798 130 98 94 0.433142 -0.366505 -0.823445
-1.80424 1.34792 1.41798 155 71 60 0.674443 -0.696556 -0.244821
-1.74435 1.26651 1.41798 105 60 71 0.844467 0.06626 -0.531493
-1.80884 1.22054 1.41798 169 75 57 0.164362 -0.920144 -0.355415
-1.80281 1.34905 1.41798 159 74 62 0.591893 -0.713223 -0.375467
-1.80583 1.22105 1.41798 169 75 57 0.124266 -0.90896 -0.397932
-1.80044 1.35093 1.41798 159 73 60 0.540922 -0.678245 -0.49738
-1.74552 1.27173 1.41798 97 51 63 0.940403 0.133957 -0.312566
-1.74554 1.27254 1.41798 97 51 63 0.936483 0.001257 -0.35071
-1.74515 1.26953 1.41798 97 49 62 0.827827 0.282178 -0.484848
-1.75155 1.28621 1.41798 97 46 53 0.661945 0.625446 -0.413093
-1.77266 1.24671 1.41798 137 106 101 0.139531 -0.990111 -0.014511
-1.75303 1.28762 1.41798 97 46 53 0.531778 0.73922 -0.413239
-1.75758 1.29017 1.41798 101 49 54 0.427566 0.880283 -0.205646
-1.76964 1.24726 1.41798 137 106 101 0.116398 -0.993188 0.005439
-1.75457 1.28876 1.41798 101 49 54 0.455583 0.838086 -0.300094
-1.76663 1.24743 1.41798 131 92 94 0.133234 -0.990856 0.021273
-1.76362 1.24809 1.41798 131 92 94 0.256506 -0.965887 0.035592
-1.81531 1.32078 1.41798 150 54 41 0.830838 0.087532 -0.549587
-1.81508 1.3238 1.41798 150 54 41 0.853599 -0.129421 -0.504598
-1.81487 1.32451 1.41798 155 63 51 0.865026 -0.17892 -0.468741
-1.81421 1.32681 1.41798 158 66 53 0.909648 -0.127155 -0.395438
-1.76249 1.24842 1.41798 118 77 84 0.306224 -0.951438 0.031505
-1.7606 1.24895 1.41798 124 84 88 0.299238 -0.953268 0.041666
-1.81392 1.32983 1.41798 156 67 54 0.914244 -0.108937 -0.390243
-1.81352 1.33284 1.41798 156 68 57 0.900241 -0.25195 -0.355087
-1.81242 1.33586 1.41798 154 68 57 0.895676 -0.314455 -0.314455
-1.77568 1.36163 1.41798 176 70 49 0.120116 -0.849492 -0.513747
-1.77266 1.36229 1.41798 176 70 49 0.189662 -0.717017 -0.670757
-1.77076 1.36299 1.41798 176 70 49 0.231291 -0.926582 -0.296563
-1.76964 1.3635 1.41798 172 67 48 0.42944 -0.896649 -0.10771
-1.76663 1.36497 1.41798 172 67 48 0.392556 -0.91775 -0.06029
-1.76466 1.36601 1.41798 172 67 48 0.474733 -0.87436 -0.100615
-1.81186 1.22128 1.41563 128 42 29 0.012082 -0.868593 -0.49538
-1.80884 1.22128 1.41511 169 75 57 0.109063 -0.935789 -0.335268
-1.80583 1.22128 1.41751 169 75 57 0.169738 -0.857545 -0.485598
-1.81487 1.23636 1.41533 171 65 49 0.130739 0.353684 -0.926183
-1.81186 1.23636 1.4157 171 65 49 0.127209 0.295928 -0.946702
-1.81789 1.23937 1.41582 173 66 50 0.176813 0.286465 -0.941634
-1.8209 1.24239 1.41628 173 66 50 0.336258 0.135876 -0.931916
-1.81789 1.24239 1.41651 173 66 50 0.132796 0.190973 -0.972571
-1.81487 1.23937 1.41629 170 62 46 0.102836 0.272061 -0.956769
-1.81186 1.23937 1.41637 171 63 48 0.109172 0.240179 -0.96457
-1.81487 1.24239 1.41702 172 65 51 0.137487 0.212012 -0.967547
-1.81186 1.24239 1.41735 171 63 48 -0.005493 0.126331 -0.991973
-1.80583 1.23334 1.41615 172 65 48 0.375407 0.48819 -0.787871
-1.8209 1.2454 1.41577 173 65 51 0.42944 -0.10771 -0.896649
-1.80884 1.23636 1.41636 172 65 48 0.313073 0.310106 -0.897675
-1.81789 1.2454 1.41702 172 72 59 0.265739 -0.023267 -0.963764
-1.80583 1.23636 1.41781 172 65 48 0.39299 0.441111 -0.806833
-1.8209 1.24842 1.41553 172 72 59 0.382721 -0.091254 -0.919346
-1.81789 1.24842 1.41666 167 72 63 0.199226 -0.215271 -0.956017
-1.80884 1.23937 1.41681 173 66 53 0.214613 0.132366 -0.967688
-1.81487 1.2454 1.41758 172 71 59 0.083482 0.00317 -0.996504
-1.81186 1.2454 1.41731 167 79 69 -0.164503 -0.103576 -0.980924
-1.80884 1.24239 1.41713 173 66 53 0.012279 -0.139535 -0.990141
-1.81487 1.24842 1.417 162 87 78 0.02421 -0.342768 -0.939108
-1.80583 1.24239 1.4175 173 66 53 0.0308 -0.448608 -0.893198
-1.81186 1.24842 1.4172 167 79 69 -0.196572 -0.329506 -0.923464
-1.80281 1.24239 1.41734 141 83 75 0.097566 -0.473692 -0.87527
-1.8209 1.25143 1.41518 160 99 90 0.217287 -0.236419 -0.947044
-1.80884 1.2454 1.41671 138 97 93 -0.224174 -0.21874 -0.949684
-1.74552 1.25445 1.4159 113 72 79 0.704871 -0.647068 -0.290619
