ply
format ascii 1.0
element vertex 739
property float x
property float y
property float z
property uchar red
property uchar green
property uchar blue
property float nx
property float ny
property float nz
end_header
-0.928424 0.355941 1.72976 146 54 38 0.136748 -0.683739 -0.716799
-1.02491 0.346896 1.7301 165 52 31 0.492682 -0.097968 -0.864677
-1.02491 0.349911 1.73069 164 52 31 0.317305 0.273438 -0.908047
-1.03094 0.352926 1.73041 160 49 30 0.405796 0.187626 -0.894497
-1.03094 0.31976 1.72949 114 29 21 0.245462 0.461957 -0.852258
-1.02792 0.31976 1.73048 116 29 21 0.319444 0.5038 -0.802584
-1.03395 0.322775 1.73025 115 29 21 0.398607 0.200034 -0.895041
-1.03395 0.32579 1.72984 115 29 21 0.489615 -0.071141 -0.869032
-1.02792 0.352926 1.73092 160 49 30 0.22595 0.231427 -0.94625
-1.03094 0.355941 1.73033 160 49 30 0.519539 -0.191251 -0.832768
-1.03094 0.322775 1.73068 111 28 20 0.231068 0.290607 -0.928523
-1.02792 0.355941 1.73097 160 49 30 0.233339 0.047645 -0.971228
-0.937469 0.349911 1.73106 147 87 73 -0.009685 -0.640563 -0.767845
-1.00983 0.44338 1.72933 127 37 31 0.58064 0.724573 -0.371282
-1.03094 0.32579 1.73126 111 28 20 0.350699 0.040117 -0.935629
-1.02792 0.358956 1.73133 169 57 36 0.461814 -0.27956 -0.841768
-0.940485 0.349911 1.73137 153 58 42 -0.104235 -0.635686 -0.764878
-1.01285 0.446395 1.73038 127 37 31 0.654504 0.384129 -0.651206
-0.9435 0.352926 1.72956 153 58 42 -0.162547 -0.672973 -0.721585
-0.940485 0.352926 1.72896 153 58 42 -0.113073 -0.600607 -0.791509
-1.02491 0.358956 1.73153 165 51 30 0.072063 0.001044 -0.9974
-0.937469 0.352926 1.72867 153 58 42 0.026656 -0.64395 -0.764603
-0.934454 0.352926 1.72876 161 50 31 0.220378 -0.664261 -0.714276
-1.03395 0.328805 1.72976 117 28 20 0.4679 -0.039331 -0.882906
-1.01285 0.44941 1.73082 129 37 30 0.524721 0.028771 -0.850788
-1.03395 0.33182 1.7295 117 28 20 0.448006 -0.061652 -0.891902
-1.02491 0.364987 1.72888 156 48 29 0.560672 -0.67448 -0.480337
-1.02189 0.364987 1.73125 151 47 28 0.697138 -0.486492 -0.526615
-1.03094 0.328805 1.73116 115 27 19 0.386665 -0.08276 -0.918499
-1.00983 0.452425 1.73125 128 50 44 0.380489 -0.241322 -0.892744
-1.03094 0.33182 1.73074 115 27 19 0.3661 -0.070557 -0.927897
-1.01888 0.371017 1.72959 156 46 26 0.489472 -0.783479 -0.382855
-1.03395 0.334835 1.72948 115 27 20 0.446537 -0.025326 -0.894407
-1.01586 0.371017 1.73009 154 45 26 0.088392 -0.879713 -0.467216
-1.01285 0.371017 1.73064 159 48 28 0.106485 -0.873175 -0.475632
-1.03094 0.334835 1.73059 115 26 18 0.260546 0.025688 -0.96512
-1.02792 0.334835 1.73094 115 26 18 0.186949 -0.034098 -0.981778
-0.991742 0.368552 1.73155 167 54 31 -0.232566 -0.967118 -0.102939
-0.997772 0.439254 1.73155 122 55 50 0.010154 0.987213 -0.159082
-0.979681 0.367058 1.73155 167 57 34 -0.238641 -0.968306 0.073716
-0.95556 0.354688 1.73155 160 52 33 -0.350896 -0.87648 -0.329629
-0.985093 0.368002 1.73155 167 57 34 -0.181259 -0.982115 0.050942
-0.95819 0.355941 1.73155 160 52 33 -0.411101 -0.89812 -0.156132
-0.985712 0.368067 1.73155 167 57 34 -0.074652 -0.962885 -0.259384
-0.961591 0.357776 1.73155 160 52 33 -0.517894 -0.853901 -0.051373
-0.973651 0.364425 1.73155 156 60 41 -0.426943 -0.895019 0.129076
-0.94953 0.352541 1.73155 162 51 31 -0.27056 -0.81168 -0.517661
-0.95556 0.355941 1.72774 160 52 33 -0.197793 -0.939169 -0.280783
-0.985712 0.368002 1.73143 167 57 34 -0.122061 -0.987153 0.1031
-1.01888 0.315403 1.73457 116 30 21 0.590266 0.600414 -0.539527
-1.01964 0.316744 1.73457 116 30 21 0.661245 0.286593 -0.693267
-1.01601 0.313729 1.73457 116 30 21 0.522884 0.772185 -0.361001
-1.02085 0.31976 1.73457 116 30 21 0.564745 0.248738 -0.786888
-1.01586 0.352004 1.73457 163 50 30 0.262772 0.240289 -0.934458
-1.02189 0.323196 1.73457 115 29 20 0.412483 0.140329 -0.900092
-1.0038 0.440586 1.73457 128 66 62 0.659173 0.605772 -0.445568
-1.01658 0.352926 1.73457 163 50 30 0.301516 0.222244 -0.927198
-0.92942 0.349911 1.73457 152 51 34 0.318631 -0.502517 -0.803711
-1.01872 0.355941 1.73457 163 50 30 0.308915 0.104739 -0.945305
-1.02325 0.32579 1.73457 115 29 20 0.398052 0.040995 -0.916446
-1.01888 0.35598 1.73457 168 52 30 0.333638 0.053226 -0.941197
-1.00631 0.44338 1.73457 128 66 62 0.75721 0.222343 -0.614164
-0.928424 0.350345 1.73457 152 51 34 0.130864 -0.554333 -0.821942
-0.925409 0.3509 1.73457 148 58 44 0.159682 -0.550678 -0.819302
-1.00633 0.446395 1.73457 128 66 62 0.614821 -0.161636 -0.771925
-1.0192 0.358956 1.73457 168 52 30 0.35485 0.01399 -0.934819
-1.00326 0.440365 1.73457 122 55 50 0.303077 0.856924 -0.416924
-0.994568 0.440365 1.73457 122 55 50 -0.211501 0.934248 -0.287138
-0.991742 0.441189 1.73457 122 55 50 -0.253818 0.861767 -0.439243
-1.01888 0.359509 1.73457 168 52 30 0.33647 -0.1945 -0.921389
-1.00475 0.44941 1.73457 147 68 58 0.538096 -0.296826 -0.78889
-1.02247 0.33182 1.73457 116 26 18 0.404966 -0.052124 -0.912845
-1.0038 0.451323 1.73457 142 48 39 0.454609 -0.234101 -0.859376
-1.02207 0.334835 1.73457 116 26 18 0.519653 -0.086846 -0.849952
-1.0171 0.361971 1.73457 168 52 30 0.329713 -0.053013 -0.942592
-1.02218 0.33785 1.73457 116 26 18 0.521226 0.048648 -0.852031
-1.00325 0.452425 1.73457 147 57 46 0.419218 -0.258795 -0.870219
-1.01586 0.335581 1.73457 118 27 18 -0.115675 -0.2965 -0.948002
-1.01193 0.33785 1.73457 145 40 26 0.466127 -0.198067 -0.862261
-1.00122 0.45544 1.73457 143 38 25 0.396717 -0.273026 -0.876398
-1.01677 0.33785 1.73457 118 27 18 -0.42152 -0.169477 -0.890841
-1.00079 0.456056 1.73457 143 38 25 0.207463 -0.143033 -0.96773
-1.01049 0.340865 1.73457 145 40 26 0.410499 -0.22081 -0.884722
-1.01285 0.335823 1.73457 120 27 18 0.39591 -0.318885 -0.861143
-0.997772 0.458014 1.73457 143 38 25 0.13868 -0.13868 -0.980579
-1.00983 0.341725 1.73457 165 53 32 0.22632 -0.308877 -0.923783
-1.01586 0.31368 1.73457 109 29 22 0.155584 0.945677 -0.285462
-0.997468 0.458455 1.73457 145 50 39 0.163196 -0.055182 -0.985049
-1.00682 0.343213 1.73457 168 52 31 0.278584 -0.48402 -0.829527
-1.0038 0.307565 1.73457 106 26 19 0.444432 0.890265 -0.099541
-1.0061 0.343881 1.73457 167 51 31 0.50276 -0.098273 -0.858822
-1.02233 0.340865 1.73457 120 26 16 0.488806 0.001332 -0.872392
-0.991742 0.366832 1.73457 167 57 34 -0.160075 -0.859118 -0.486099
-0.988727 0.366828 1.73457 167 57 34 0.033715 -0.888735 -0.457179
-1.00402 0.307699 1.73457 106 26 19 0.470668 0.84842 -0.242188
-1.02189 0.341804 1.73457 154 46 29 0.110141 -0.411285 -0.904828
-1.01285 0.312832 1.73457 106 26 17 0.287964 0.86694 -0.406807
-1.01872 0.340865 1.73457 147 41 25 -0.22596 -0.250912 -0.941268
-1.00983 0.311669 1.73457 106 26 17 0.44369 0.80569 -0.392433
-1.01285 0.349849 1.73457 166 51 31 0.148477 0.348296 -0.925551
-1.01888 0.34091 1.73457 162 51 31 -0.115086 -0.389628 -0.913753
-1.0131 0.349911 1.73457 166 51 31 0.132577 0.293277 -0.94679
-1.00682 0.309658 1.73457 110 27 19 0.581294 0.765027 -0.277184
-1.01786 0.364987 1.73457 163 50 30 0.429371 0.030574 -0.90261
-1.00983 0.348757 1.73457 166 51 31 0.308519 0.397545 -0.864161
-1.01752 0.368002 1.73457 161 51 30 0.359131 -0.500851 -0.787511
-1.00682 0.344178 1.73457 154 45 28 0.256257 0.223012 -0.940531
-1.0083 0.310714 1.73457 110 27 19 0.536523 0.802438 -0.261222
-1.00821 0.346896 1.73457 154 45 28 0.36918 0.236805 -0.898682
-1.01586 0.368808 1.73457 162 50 29 0.167154 -0.799631 -0.576758
-1.01285 0.369043 1.73457 164 53 33 0.090294 -0.83844 -0.537462
-1.00983 0.369184 1.73457 164 53 33 0.175567 -0.829815 -0.529701
-0.991742 0.303507 1.73457 108 26 18 0.493478 0.792458 -0.358455
-1.00682 0.370406 1.73457 165 53 31 0.303511 -0.89259 -0.333413
-0.993642 0.304684 1.73457 108 26 18 0.440053 0.86031 -0.257332
-1.0038 0.370959 1.73457 165 54 32 -0.068606 -0.918779 -0.388766
-0.994757 0.305049 1.73457 108 26 18 0.140503 0.973394 -0.181008
-0.994757 0.367661 1.73457 167 54 31 -0.252104 -0.884603 -0.392328
-0.995825 0.368002 1.73457 167 54 31 -0.312331 -0.846867 -0.430426
-0.985712 0.366798 1.73457 167 57 34 0.0036 -0.966129 -0.258034
-1.00079 0.370329 1.73457 167 54 31 -0.286947 -0.896525 -0.337498
-0.997772 0.368919 1.73457 167 54 31 -0.39223 -0.836442 -0.382779
-0.989667 0.470516 1.73457 147 42 28 0.121015 -0.147908 -0.981569
-0.996603 0.46147 1.73457 150 55 43 0.156878 -0.012415 -0.98754
-0.997644 0.464486 1.73457 150 55 43 0.107906 -0.038935 -0.993398
-0.982697 0.442324 1.73457 109 49 47 0.300049 0.920245 -0.251237
-0.979681 0.440413 1.73457 109 49 47 0.491413 0.863912 -0.110317
-0.937469 0.347109 1.73457 147 87 73 -0.103246 -0.809974 -0.577306
-0.934454 0.347358 1.73457 147 87 73 0.1962 -0.650396 -0.733819
-0.931439 0.348613 1.73457 147 87 73 0.248947 -0.508718 -0.824155
-1.02792 0.322775 1.73165 111 28 20 0.396672 0.290285 -0.870854
-1.02491 0.352926 1.73171 163 50 30 0.346321 0.182348 -0.920223
-0.931439 0.349911 1.73343 152 51 34 0.341214 -0.648144 -0.680796
-1.00983 0.446395 1.73213 125 39 32 0.466386 0.076571 -0.881261
-1.02189 0.349911 1.73196 163 50 30 0.340613 0.127217 -0.931557
-1.02189 0.352926 1.73275 163 50 30 0.323979 0.231825 -0.917221
-0.928424 0.352926 1.73278 152 51 34 0.299426 -0.584442 -0.75417
-1.00682 0.44338 1.73388 128 66 62 0.709037 0.433393 -0.55627
-1.02491 0.355941 1.73219 163 50 30 0.434034 -0.009179 -0.90085
-0.925409 0.352926 1.7333 148 58 44 0.163939 -0.579051 -0.798639
-1.0038 0.440365 1.73374 128 66 62 0.583442 0.73621 -0.342914
-1.00682 0.446395 1.73421 143 77 70 0.575528 0.055149 -0.81592
-1.02792 0.32579 1.73267 111 28 20 0.400549 0.11863 -0.908563
-1.02189 0.355941 1.73343 163 50 30 0.355581 0.113077 -0.92778
-1.01888 0.313729 1.73271 109 29 22 0.345744 0.80461 -0.482766
-1.02491 0.316744 1.73155 118 29 21 0.336205 0.366909 -0.867378
-1.01888 0.349911 1.73301 163 50 30 0.316754 0.182796 -0.930727
-0.991742 0.440365 1.73195 122 55 50 -0.259208 0.923698 -0.282122
-1.02189 0.316744 1.73204 118 29 21 0.438586 0.461412 -0.771194
-1.01888 0.352926 1.7338 163 50 30 0.313713 0.230629 -0.921083
-1.00983 0.310714 1.73244 106 26 17 0.531839 0.751121 -0.391107
-1.02491 0.31976 1.73197 118 29 21 0.516803 0.201568 -0.832037
-1.01586 0.349911 1.734 163 50 30 0.231023 0.198599 -0.952464
-1.00983 0.44941 1.73207 138 62 54 0.434823 -0.147811 -0.888302
-1.02189 0.31976 1.73397 118 29 21 0.431451 0.287122 -0.855225
-1.01888 0.355941 1.73451 163 50 30 0.320565 0.217984 -0.921803
-1.00682 0.44941 1.73334 138 61 49 0.424373 -0.266184 -0.865479
-1.00682 0.452425 1.73231 142 59 49 0.452022 -0.197111 -0.869956
-1.02491 0.322775 1.73302 115 29 20 0.418441 0.255294 -0.871626
-1.02189 0.358956 1.73352 163 50 30 0.440002 -0.120258 -0.889908
-1.0038 0.452425 1.73423 142 48 39 0.492305 -0.176992 -0.852238
-1.02491 0.361971 1.73234 163 50 30 0.28256 0.001213 -0.959249
-1.02189 0.361971 1.73271 163 50 30 0.39488 -0.20254 -0.896129
-1.00682 0.45544 1.73197 145 63 53 0.456125 -0.030947 -0.889377
-1.02189 0.322775 1.73446 115 29 20 0.460094 0.149494 -0.875194
-1.01888 0.361971 1.73417 168 52 30 0.359046 -0.087408 -0.929218
-1.02491 0.32579 1.73388 115 29 20 0.384469 0.016829 -0.922984
-0.994757 0.304684 1.7326 108 26 18 0.338781 0.876577 -0.341819
-0.934454 0.349911 1.73237 147 87 73 0.276559 -0.666618 -0.692196
-1.01586 0.33785 1.73399 139 36 23 -0.126225 -0.095554 -0.987389
-1.02792 0.328805 1.73235 115 27 19 0.396782 -0.094733 -0.913011
-1.01285 0.33785 1.73405 139 36 23 0.111822 -0.168347 -0.979365
-1.0038 0.45544 1.73346 142 43 30 0.384831 -0.079667 -0.919543
-1.01586 0.340865 1.73404 139 36 23 -0.08745 -0.195838 -0.976729
-1.02792 0.33182 1.73194 115 27 19 0.421088 -0.211283 -0.882068
-1.01285 0.340865 1.73384 139 36 23 0.111099 -0.127823 -0.985555
-1.01888 0.364987 1.73405 162 50 29 0.564662 -0.128265 -0.815295
-1.02792 0.33785 1.73193 115 27 19 0.350117 0.070023 -0.934085
-1.0038 0.458455 1.73339 143 51 40 0.267236 -0.080554 -0.960258
-1.01586 0.343881 1.73322 164 52 32 0.028056 -0.131303 -0.990945
-1.01888 0.368002 1.73367 156 48 29 0.62252 -0.354559 -0.69768
-1.02491 0.33182 1.73344 116 26 18 0.44934 -0.136381 -0.882889
-1.01285 0.343881 1.73339 164 52 32 0.136488 -0.071161 -0.988083
-1.02491 0.334835 1.73255 116 26 18 0.565385 -0.046297 -0.823527
-1.00983 0.343881 1.73393 165 53 32 0.192183 -0.051328 -0.980016
-1.00079 0.458455 1.73408 143 38 25 0.172469 -0.101524 -0.979769
-1.00682 0.343881 1.73426 168 52 31 0.149035 -0.182153 -0.97191
-1.02491 0.33785 1.73294 116 26 18 0.445815 0.117469 -0.887384
-1.01586 0.346896 1.73327 166 52 32 0.097123 0.113505 -0.988779
-1.01285 0.346896 1.73339 166 52 32 0.111301 0.19634 -0.974198
-0.991742 0.470516 1.73435 147 45 32 0.162792 -0.130482 -0.977995
-1.00983 0.371017 1.7317 164 53 33 0.212253 -0.823052 -0.526815
-0.997772 0.458455 1.73453 143 38 25 0.1474 -0.052228 -0.987697
-1.02792 0.340865 1.73188 145 42 28 0.265974 -0.048699 -0.962749
-1.00682 0.371017 1.73293 165 53 31 0.222329 -0.875886 -0.428244
-1.02491 0.340865 1.73312 119 25 16 0.405796 -0.187626 -0.894497
-1.0038 0.371017 1.73439 165 54 32 -0.044146 -0.95482 -0.293888
-0.991742 0.368002 1.73249 167 57 34 -0.100951 -0.868751 -0.484851
-1.02491 0.343881 1.73186 149 43 27 0.406749 -0.365917 -0.837054
-0.988727 0.368002 1.73231 167 57 34 -0.04164 -0.901306 -0.431176
-1.00983 0.346896 1.73396 167 51 30 0.205706 0.153956 -0.966428
-0.994757 0.368002 1.73401 167 54 31 -0.243537 -0.837828 -0.488605
-0.985712 0.368002 1.73178 167 57 34 -0.079865 -0.919124 -0.385788
-1.02189 0.343881 1.73346 154 46 29 0.276471 -0.391289 -0.877757
-1.00079 0.371017 1.73189 167 54 31 -0.205631 -0.949169 -0.238314
-1.01888 0.343881 1.73309 162 51 31 -0.043251 -0.258267 -0.965105
-1.02189 0.346896 1.73175 166 51 30 0.332992 -0.226319 -0.915367
-1.01888 0.346896 1.73281 167 52 30 0.218655 -0.042281 -0.974886
-1.00079 0.46147 1.73392 150 55 43 0.23179 -0.065695 -0.970545
-0.997772 0.46147 1.73437 150 55 43 0.149266 -0.010101 -0.988746
-0.997772 0.464486 1.73455 150 55 43 0.255289 -0.066652 -0.964565
-1.01661 0.313729 1.73758 116 30 21 0.999217 0.001014 -0.039563
-1.0038 0.442871 1.73758 128 66 62 0.409523 0.631693 -0.658221
-1.00392 0.44338 1.73758 128 66 62 0.735417 0.416243 -0.534699
-1.0038 0.444465 1.73758 120 61 58 0.51818 -0.26298 -0.813838
-1.00584 0.33785 1.73758 153 44 28 0.441464 -0.233539 -0.866354
-1.00079 0.441072 1.73758 122 55 50 0.158096 0.591731 -0.790481
-1.0038 0.340846 1.73758 153 44 28 0.565409 -0.269317 -0.779603
-1.0038 0.348039 1.73758 154 45 28 0.531202 0.409502 -0.741709
-1.00545 0.349911 1.73758 154 45 28 0.472082 0.403947 -0.783559
-1.00379 0.340865 1.73758 167 51 31 0.732357 -0.461236 -0.500913
-1.00135 0.343881 1.73758 167 51 31 0.656277 0.02099 -0.754228
-0.997772 0.441138 1.73758 122 55 50 -0.133206 0.749843 -0.648068
-1.00143 0.446395 1.73758 122 55 50 0.513409 -0.331077 -0.791706
-0.994757 0.44199 1.73758 122 55 50 -0.23678 0.751109 -0.616255
-0.991742 0.44318 1.73758 122 55 50 -0.278182 0.745528 -0.605642
-1.01586 0.314907 1.73758 116 30 21 0.669283 0.237792 -0.703928
-1.00079 0.446659 1.73758 147 60 50 0.237858 -0.682071 -0.691522
-1.01586 0.316917 1.73758 116 30 21 0.531083 0.169049 -0.830285
-0.997772 0.448795 1.73758 155 75 64 0.345386 -0.479084 -0.806962
-1.01622 0.31976 1.73758 116 30 21 0.596579 0.040708 -0.801521
-0.996965 0.44941 1.73758 145 43 31 0.355963 -0.380834 -0.853379
-1.01494 0.313729 1.73758 120 30 21 -0.230775 0.711165 -0.664068
-1.01285 0.314511 1.73758 120 30 21 0.13937 0.452592 -0.880759
-1.01349 0.361971 1.73758 163 48 29 0.63 0.032272 -0.775924
-0.994757 0.45178 1.73758 144 41 29 0.399593 -0.474011 -0.784626
-1.01525 0.316744 1.73758 120 30 21 0.25481 0.158756 -0.95387
-1.01285 0.363232 1.73758 163 48 29 0.238528 -0.298517 -0.924117
-1.01031 0.313729 1.73758 120 30 21 0.293497 0.643128 -0.70728
-1.00983 0.364732 1.73758 164 54 33 0.307557 -0.136842 -0.941638
-0.993974 0.452425 1.73758 145 43 31 0.433948 -0.453451 -0.778506
-1.01586 0.326159 1.73758 119 26 18 0.359094 -0.152301 -0.920791
-1.00972 0.364987 1.73758 162 51 30 0.502664 -0.217163 -0.836761
-0.991742 0.454084 1.73758 145 50 39 0.374022 -0.503553 -0.778808
-1.01449 0.328805 1.73758 119 26 18 0.29875 -0.225124 -0.927398
-1.00843 0.368002 1.73758 162 51 30 0.621704 -0.467535 -0.628407
-1.01285 0.330342 1.73758 119 26 18 0.272011 -0.306921 -0.912036
-1.00682 0.369982 1.73758 165 55 33 0.280122 -0.812197 -0.511731
-0.991742 0.364981 1.73758 167 57 34 -0.039193 -0.979827 -0.195965
-1.01109 0.33182 1.73758 119 26 18 0.338924 -0.366529 -0.86648
-1.0038 0.369666 1.73758 165 54 32 -0.072267 -0.904023 -0.421332
-0.989177 0.364987 1.73758 167 57 34 0.119476 -0.898178 -0.423086
-1.00983 0.3329 1.73758 120 27 18 0.234932 -0.351668 -0.906166
-0.988727 0.365632 1.73758 167 56 32 0.194392 -0.9328 -0.303475
-0.997772 0.367704 1.73758 167 54 31 -0.292531 -0.843541 -0.450404
-0.998416 0.368002 1.73758 167 54 31 -0.370572 -0.797291 -0.476449
-0.985712 0.366118 1.73758 167 57 35 0.228081 -0.956341 -0.182732
-0.991774 0.364987 1.73758 167 54 31 -0.38833 -0.813416 -0.433076
-1.00682 0.334689 1.73758 118 26 17 0.366881 -0.40782 -0.836111
-0.994757 0.366421 1.73758 167 54 31 -0.349678 -0.853214 -0.386977
-1.00079 0.369052 1.73758 167 54 31 -0.263013 -0.865054 -0.427206
-1.0031 0.346896 1.73758 166 51 31 0.601796 0.353902 -0.715958
-1.00673 0.334835 1.73758 118 25 17 0.471944 -0.143761 -0.869829
-0.937469 0.345121 1.73758 147 87 73 -0.16878 -0.828965 -0.533226
-0.934454 0.344639 1.73758 147 87 73 -0.109977 -0.790371 -0.602676
-0.931439 0.344457 1.73758 147 87 73 -0.001383 -0.690311 -0.723512
-0.988727 0.460812 1.73758 150 50 37 0.463659 -0.252488 -0.849276
-0.925409 0.343761 1.73758 154 59 43 -0.001371 -0.618487 -0.785794
-0.988134 0.46147 1.73758 150 50 37 0.382713 -0.446765 -0.808661
-0.985712 0.463328 1.73758 150 50 37 0.277539 -0.525285 -0.804392
-0.925885 0.343881 1.73758 154 59 43 -0.03436 -0.515404 -0.856258
-0.982697 0.464305 1.73758 150 50 37 0.275998 -0.674839 -0.684411
-0.925078 0.343881 1.73758 154 59 43 0.45563 -0.481948 -0.748417
-0.928424 0.34424 1.73758 161 49 31 0.015001 -0.535932 -0.844128
-0.922807 0.346896 1.73758 158 51 32 0.472411 -0.348343 -0.80962
-1.01052 0.355941 1.73758 167 50 29 0.394799 0.133473 -0.909021
-0.922394 0.347453 1.73758 153 52 36 0.366163 -0.55494 -0.746972
-1.0114 0.358956 1.73758 167 50 29 0.248941 0.123819 -0.960571
-1.01285 0.359161 1.73758 167 50 29 0.398491 0.277277 -0.874255
-0.982697 0.442733 1.73758 109 49 47 0.490495 0.851285 -0.186358
-0.984186 0.44338 1.73758 109 49 47 0.258661 0.883635 -0.390235
-0.979681 0.440784 1.73758 109 49 47 0.487148 0.862324 -0.138146
-1.01586 0.313144 1.73758 109 29 22 0.0211 0.999753 -0.007033
-1.0038 0.307642 1.73758 106 26 19 0.394108 0.91504 -0.085913
-1.00388 0.307699 1.73758 106 26 19 0.614027 0.783213 -0.097719
-1.00983 0.313364 1.73758 106 26 17 0.562536 0.596322 -0.572672
-1.00682 0.31027 1.73758 110 27 19 0.64364 0.734031 -0.216625
-1.00732 0.310714 1.73758 110 27 19 0.61082 0.644289 -0.460207
-0.991849 0.304684 1.73758 108 26 18 0.324886 0.897516 -0.298183
-0.994757 0.305511 1.73758 108 26 18 0.215321 0.908972 -0.356941
-0.982697 0.366792 1.73758 167 57 35 0.140445 -0.989858 -0.021348
-0.979681 0.367153 1.73758 167 57 35 -0.09886 -0.994158 0.043321
-1.01888 0.316744 1.73534 116 30 21 0.603877 0.113135 -0.789007
-0.928424 0.349911 1.73482 148 59 45 0.144428 -0.424704 -0.893738
-1.01586 0.316744 1.73721 116 30 21 0.567075 0.05798 -0.821623
-1.01586 0.352926 1.73475 163 50 30 0.266629 0.26948 -0.925359
-1.0038 0.446395 1.73668 120 61 58 0.523575 -0.316692 -0.790933
-1.01888 0.31976 1.73569 116 30 21 0.511858 0.083655 -0.854987
-1.01586 0.355941 1.73553 163 50 30 0.336132 0.138569 -0.931565
-1.00079 0.440365 1.73635 122 55 50 0.14454 0.94424 -0.295835
-0.997772 0.440365 1.73632 122 55 50 -0.081763 0.951307 -0.297202
-0.994757 0.440365 1.73471 122 55 50 -0.189696 0.91425 -0.357998
-1.0038 0.44941 1.73515 142 59 49 0.364793 -0.367898 -0.855323
-0.925409 0.349911 1.73522 158 49 33 0.142872 -0.403153 -0.903911
-1.00079 0.44941 1.73626 147 60 50 0.317984 -0.314999 -0.894238
-0.997772 0.44941 1.73714 155 75 64 0.210018 -0.369342 -0.905251
-1.02189 0.32579 1.73511 115 29 20 0.355326 -0.032302 -0.934184
-0.922394 0.349911 1.73605 136 77 65 0.268426 -0.488752 -0.830102
-1.01285 0.313729 1.73641 106 26 17 0.170851 0.900198 -0.400567
-1.00079 0.452425 1.73579 143 43 32 0.199867 -0.271544 -0.941444
-1.02189 0.33182 1.73481 116 26 18 0.299268 -0.039145 -0.953366
-0.997772 0.452425 1.73565 144 49 37 0.201643 -0.384427 -0.900864
-1.02189 0.334835 1.73465 116 26 18 0.317678 -0.018835 -0.948012
-1.02189 0.33785 1.73469 116 26 18 0.314715 0.011195 -0.94912
-0.994757 0.452425 1.73672 144 41 29 0.321648 -0.39552 -0.860294
-1.01888 0.33182 1.73567 118 27 18 0.235636 -0.11975 -0.964435
-1.01888 0.334835 1.73564 118 27 18 0.054757 -0.046167 -0.997432
-1.00079 0.45544 1.73473 143 38 25 0.091068 -0.31808 -0.94368
-1.01586 0.33182 1.73624 118 27 18 0.228101 -0.319916 -0.919578
-1.01888 0.358956 1.73467 168 52 30 0.295361 0.013594 -0.955289
-1.01586 0.334835 1.73503 118 27 18 0.056677 -0.365105 -0.929239
-1.01586 0.358956 1.73564 168 52 30 0.421439 -0.009133 -0.906811
-1.01888 0.33785 1.73565 118 27 18 -0.030375 -0.129376 -0.99113
-0.997772 0.45544 1.7349 143 38 25 0.123966 -0.254457 -0.959106
-1.01586 0.361971 1.73506 168 52 30 0.64128 -0.020957 -0.767021
-0.994757 0.45544 1.7354 145 50 39 0.300151 -0.288438 -0.909238
-1.00983 0.33785 1.736 143 39 25 0.458108 -0.290394 -0.840124
-1.01586 0.328805 1.73714 119 26 18 0.333142 -0.153439 -0.930308
-1.00983 0.340865 1.73488 143 39 25 0.344629 -0.329447 -0.879031
-0.991742 0.45544 1.73672 145 50 39 0.419214 -0.217754 -0.881387
-1.01285 0.33182 1.73709 119 26 18 0.183541 -0.439029 -0.879526
-1.01285 0.334835 1.73516 120 27 18 0.256807 -0.48132 -0.838082
-0.994757 0.458455 1.73502 145 50 39 0.270852 -0.097196 -0.957702
-1.01586 0.364987 1.73548 161 51 30 0.464203 -0.073441 -0.882679
-1.00682 0.33785 1.73717 149 43 27 0.313252 -0.269542 -0.910615
-1.00983 0.334835 1.73704 120 27 18 0.378995 -0.285379 -0.880296
-1.01586 0.368002 1.73508 166 59 37 0.225124 -0.29875 -0.927398
-1.00682 0.340865 1.73602 149 43 27 0.389695 -0.396006 -0.831455
-0.991742 0.458455 1.73607 145 50 39 0.406379 -0.115909 -0.906323
-1.00682 0.334835 1.73753 118 26 17 0.165637 -0.181045 -0.969426
-0.991742 0.364987 1.73757 167 57 34 0.001343 -0.852716 -0.522373
-1.01285 0.364987 1.73673 163 48 29 0.244858 -0.35629 -0.901722
-1.02189 0.340865 1.73474 139 37 24 0.137348 -0.152197 -0.97876
-1.0038 0.340865 1.73757 153 44 28 0.447994 -0.396611 -0.80125
-1.00983 0.364987 1.73753 164 54 33 0.348042 -0.40735 -0.844353
-1.01285 0.368002 1.73528 167 62 40 0.152693 -0.466805 -0.871079
-1.0038 0.343881 1.73608 154 45 28 0.512825 -0.080526 -0.854708
-1.00983 0.368002 1.73601 163 54 33 0.3474 -0.62793 -0.696432
-1.01285 0.349911 1.73461 166 51 31 0.276966 0.339172 -0.899028
-1.01888 0.340865 1.73459 131 30 19 -0.218183 -0.318005 -0.922642
-1.00983 0.349911 1.73527 166 51 31 0.329699 0.426578 -0.842217
-0.997772 0.368002 1.73671 167 54 31 -0.384518 -0.860147 -0.335102
-1.00682 0.346896 1.73534 154 45 28 0.462229 0.332868 -0.821915
-1.0038 0.346896 1.73706 154 45 28 0.494587 0.293612 -0.818031
-1.00682 0.349911 1.73673 154 45 28 0.437031 0.414454 -0.798268
-1.01285 0.355941 1.73658 167 50 29 0.341234 0.233782 -0.910442
-1.01285 0.358956 1.73701 167 50 29 0.414586 0.169013 -0.894177
-0.994757 0.46147 1.73493 150 55 43 0.261819 -0.04343 -0.964139
-0.991742 0.46147 1.73577 150 55 43 0.359477 -0.137406 -0.922982
-0.994757 0.464486 1.73484 150 55 43 0.140887 -0.131086 -0.981309
-0.991742 0.464486 1.73522 150 55 43 0.1874 -0.192642 -0.963208
-0.988727 0.46147 1.73722 150 50 37 0.338728 -0.314641 -0.886715
-0.988727 0.464486 1.73585 150 50 37 0.182006 -0.304269 -0.935037
-0.985712 0.464486 1.73675 150 50 37 0.218222 -0.468049 -0.856335
-0.937469 0.346896 1.73488 147 87 73 -0.150077 -0.824678 -0.545328
-0.934454 0.346896 1.73497 147 87 73 0.004153 -0.746103 -0.665817
-0.931439 0.346896 1.73556 147 87 73 0.124968 -0.560152 -0.81891
-0.925409 0.343881 1.73751 154 59 43 0.326954 -0.332981 -0.884434
-0.928424 0.346896 1.7362 161 49 31 0.110442 -0.418001 -0.901708
-0.925409 0.346896 1.73631 161 49 31 0.227443 -0.38005 -0.896566
-1.01598 0.32579 1.73758 115 29 20 0.462205 0.064847 -0.884399
-0.973651 0.365672 1.73758 156 60 41 -0.397192 -0.910058 0.118461
-1.00983 0.354788 1.73758 165 50 29 0.393047 0.36486 -0.844033
-0.94953 0.349285 1.73758 160 52 33 -0.378995 -0.880296 -0.285379
-0.950763 0.349911 1.73758 160 52 33 -0.495806 -0.850167 -0.17718
-0.9435 0.346833 1.73758 160 52 33 -0.325378 -0.872258 -0.365096
-0.95556 0.352812 1.73758 160 52 33 -0.527366 -0.825244 -0.202132
-0.95982 0.355941 1.73758 160 52 33 -0.551135 -0.825971 -0.118414
-0.961591 0.357287 1.73758 160 52 33 -0.59851 -0.800349 -0.035042
-0.94953 0.349911 1.73584 160 52 33 -0.368995 -0.806677 -0.461643
-0.9435 0.349911 1.73247 160 52 33 -0.282047 -0.824325 -0.490855
-0.991742 0.364214 1.74059 160 46 26 -0.019497 -0.91897 -0.393844
-0.988727 0.364608 1.74059 160 46 26 0.208719 -0.924325 -0.319467
-0.987607 0.364987 1.74059 160 46 26 0.40251 -0.900992 -0.161863
-0.985712 0.365886 1.74059 160 46 26 0.350003 -0.935511 -0.048142
-0.982697 0.367046 1.74059 167 57 35 0.264659 -0.963851 0.030774
-0.979681 0.367419 1.74059 167 57 35 -0.120759 -0.988351 0.092621
-1.0038 0.310454 1.74059 117 29 21 0.460253 0.614229 -0.641007
-1.00401 0.310714 1.74059 117 29 21 0.607029 0.205432 -0.767668
-1.00495 0.313729 1.74059 118 29 21 0.503841 0.248069 -0.827409
-0.928424 0.340196 1.74059 155 54 37 -0.200829 -0.786452 -0.58409
-0.994757 0.307078 1.74059 114 28 19 0.240392 0.840607 -0.485378
-0.996799 0.307699 1.74059 114 28 19 0.277694 0.766436 -0.579191
-0.930397 0.340865 1.74059 155 54 37 -0.220482 -0.702102 -0.677083
-0.991742 0.306251 1.74059 114 28 19 0.286082 0.823853 -0.489309
-0.925409 0.340034 1.74059 155 54 37 0.061734 -0.739373 -0.67046
-0.931439 0.341375 1.74059 155 54 37 -0.322432 -0.7748 -0.543804
-1.00079 0.308441 1.74059 116 29 20 0.276502 0.660089 -0.698448
-0.976666 0.30024 1.74059 108 26 21 0.301582 0.832866 -0.464092
-0.997772 0.307968 1.74059 116 29 20 0.123633 0.689664 -0.713497
-0.973651 0.299237 1.74059 108 26 21 0.290394 0.840124 -0.458108
-0.986337 0.458455 1.74059 146 56 46 0.662255 -0.192965 -0.724004
-0.985712 0.459402 1.74059 146 56 46 0.440008 -0.443255 -0.780973
-0.982896 0.46147 1.74059 145 52 41 0.346921 -0.540551 -0.766453
-0.982697 0.461626 1.74059 145 52 41 0.251586 -0.716784 -0.650327
-0.985712 0.304053 1.74059 108 26 18 0.425239 0.723071 -0.544372
-0.987416 0.304684 1.74059 108 26 18 0.258025 0.832787 -0.489784
-0.988727 0.305212 1.74059 110 26 18 0.296688 0.859318 -0.416592
-0.982697 0.302127 1.74059 108 26 19 0.434596 0.725428 -0.533743
-1.00682 0.316338 1.74059 124 30 21 0.365258 0.310696 -0.877528
-1.0072 0.316744 1.74059 124 30 21 0.296667 0.196385 -0.93457
-1.00917 0.31976 1.74059 124 30 21 0.281633 0.006096 -0.959503
-1.00724 0.32579 1.74059 118 26 17 0.27886 -0.092089 -0.955906
-1.00682 0.326599 1.74059 118 26 17 0.29751 -0.184041 -0.936812
-1.00552 0.328805 1.74059 118 26 17 0.329467 -0.212513 -0.91994
-1.0038 0.331484 1.74059 118 26 17 0.332985 -0.178435 -0.925895
-1.00365 0.33182 1.74059 122 28 19 0.33777 -0.233394 -0.911833
-1.00148 0.334835 1.74059 125 28 17 0.454993 -0.204374 -0.866725
-1.00107 0.33785 1.74059 121 25 16 0.573879 -0.069777 -0.815962
-1.00116 0.340865 1.74059 165 51 33 0.68784 -0.126825 -0.714697
-1.00079 0.342189 1.74059 166 51 32 0.626658 -0.351779 -0.695378
-0.999941 0.343881 1.74059 166 51 32 0.690952 -0.035325 -0.722037
-0.999826 0.346896 1.74059 166 51 31 0.747127 0.165859 -0.643655
-1.00079 0.34891 1.74059 166 51 31 0.622928 0.388297 -0.679107
-1.00167 0.349911 1.74059 166 51 31 0.590565 0.401981 -0.699745
-1.00582 0.355941 1.74059 167 52 31 0.576046 0.284056 -0.766475
-1.00621 0.358956 1.74059 167 52 31 0.620072 -0.055593 -0.782573
-0.985712 0.445969 1.74059 86 51 56 0.416372 0.769063 -0.48495
-0.986447 0.446395 1.74059 86 51 56 0.301568 0.685381 -0.662804
-1.00529 0.361971 1.74059 167 52 31 0.693264 -0.117276 -0.711078
-0.921399 0.343881 1.74059 157 52 35 0.60875 -0.431963 -0.665456
-0.919379 0.346117 1.74059 160 50 32 0.490445 -0.530618 -0.69131
-0.982697 0.443984 1.74059 120 52 51 0.562709 0.689611 -0.455845
-0.988727 0.447068 1.74059 144 51 41 0.244301 0.499358 -0.831239
-0.990692 0.44941 1.74059 144 51 41 0.444459 -0.070178 -0.893046
-0.988727 0.45217 1.74059 143 43 31 0.547045 -0.343719 -0.763282
-0.988513 0.452425 1.74059 144 51 41 0.652245 -0.363089 -0.665389
-0.9869 0.45544 1.74059 141 41 29 0.707942 -0.241236 -0.663794
-1.00449 0.364987 1.74059 162 49 30 0.588854 -0.228394 -0.775298
-1.0038 0.366237 1.74059 170 61 39 0.272734 -0.307737 -0.911545
-1.00079 0.366376 1.74059 163 54 32 -0.071749 -0.510685 -0.856769
-0.997772 0.365705 1.74059 163 52 30 -0.216916 -0.71629 -0.663232
-0.994581 0.364987 1.74059 163 51 30 -0.297881 -0.853514 -0.427529
-0.994757 0.365071 1.74059 164 52 31 -0.255384 -0.821872 -0.50922
-1.01586 0.313729 1.73836 123 30 21 0.000978 0.000978 -0.999999
-1.0038 0.368002 1.73985 169 55 31 0.023837 -0.657622 -0.752971
-0.925409 0.340865 1.73988 157 52 35 0.198657 -0.608292 -0.76845
-1.00079 0.368002 1.73931 169 55 31 -0.239836 -0.747723 -0.619184
-1.01285 0.316744 1.73868 123 30 21 0.332233 0.296477 -0.89539
-0.922394 0.343881 1.73934 162 51 30 0.529358 -0.456343 -0.715214
-1.00983 0.313729 1.73814 123 30 21 0.428667 0.471045 -0.770948
-1.00983 0.316744 1.73966 123 30 21 0.337347 0.355665 -0.871607
-1.0038 0.44338 1.73767 135 50 41 0.32963 0.001244 -0.944109
-0.931439 0.343881 1.73806 155 54 37 -0.120586 -0.668431 -0.733934
-1.01586 0.31976 1.73782 123 30 21 0.39294 0.014265 -0.919454
-0.928424 0.343881 1.73779 155 54 37 -0.116446 -0.59992 -0.791541
-1.01285 0.31976 1.73921 123 30 21 0.379095 -0.021995 -0.925096
-1.00079 0.44338 1.73868 128 49 42 0.243755 0.1845 -0.952126
-0.922394 0.346896 1.73802 148 51 36 0.563615 -0.443909 -0.696622
-1.00983 0.31976 1.74042 123 30 21 0.34295 0.045295 -0.938261
-0.919379 0.346896 1.73989 160 50 32 0.387663 -0.635107 -0.668099
-1.00682 0.313729 1.73952 124 30 21 0.427365 0.404957 -0.808313
-1.01586 0.32579 1.73762 118 26 17 0.343706 -0.034757 -0.938434
-1.01285 0.32579 1.73872 118 26 17 0.351635 -0.09835 -0.930957
-1.01285 0.328805 1.7381 118 26 17 0.302717 -0.228814 -0.925206
-1.00983 0.32579 1.73978 118 26 17 0.322427 -0.131964 -0.937351
-1.00983 0.328805 1.73906 118 26 17 0.305774 -0.265198 -0.914425
-1.00983 0.33182 1.73799 118 26 17 0.306009 -0.326907 -0.894142
-1.00682 0.328805 1.74014 118 26 17 0.316994 -0.287506 -0.903801
-1.00682 0.33182 1.73901 118 26 17 0.369269 -0.350729 -0.860598
-1.0038 0.33182 1.74052 118 26 17 0.440154 -0.330507 -0.834883
-1.0038 0.334835 1.73928 117 25 17 0.483555 -0.24715 -0.839697
-1.0038 0.33785 1.7386 118 25 17 0.588033 -0.170817 -0.790594
-0.976666 0.298654 1.73801 108 26 21 0.351975 0.757475 -0.549859
-0.988727 0.458455 1.73821 146 56 46 0.651021 -0.230603 -0.723183
-0.973651 0.298654 1.73978 108 26 21 0.32084 0.749701 -0.578801
-0.985712 0.46147 1.73892 146 56 46 0.431909 -0.534508 -0.726468
-0.991742 0.44338 1.73777 86 51 56 -0.113355 0.421232 -0.899841
-1.0038 0.349911 1.73882 145 39 24 0.566266 0.404476 -0.718151
-0.991742 0.446395 1.73964 86 51 56 0.086763 0.422798 -0.902061
-1.0038 0.307699 1.73771 118 29 21 0.448825 0.689089 -0.568957
-1.00079 0.343881 1.73874 166 51 32 0.829527 -0.278584 -0.48402
-0.988727 0.446395 1.73941 86 51 56 0.055922 0.678231 -0.732718
-0.991742 0.304684 1.73766 110 26 18 0.278557 0.847982 -0.450923
-1.01285 0.361971 1.73797 169 53 31 0.095434 0.031811 -0.994927
-0.988727 0.304684 1.73939 110 26 18 0.303774 0.839663 -0.450209
-1.00682 0.310714 1.73822 115 29 21 0.581755 0.4384 -0.685104
-1.00079 0.346896 1.73959 166 51 31 0.650031 0.340492 -0.679356
-1.00983 0.361971 1.73802 169 53 31 0.262578 -0.118879 -0.95756
-1.00983 0.355941 1.73793 167 52 31 0.520595 0.126868 -0.844326
-1.00682 0.361971 1.73905 166 52 32 0.494644 -0.113266 -0.861683
-1.00682 0.364987 1.73934 166 52 32 0.518339 -0.114063 -0.847534
-1.00079 0.307699 1.73969 106 25 18 0.21172 0.824034 -0.525493
-0.937469 0.343881 1.73988 147 64 50 -0.276613 -0.889648 -0.363335
-1.00983 0.358956 1.73821 167 52 31 0.491636 0.031323 -0.870237
-0.934454 0.343881 1.7386 147 64 50 -0.248555 -0.822857 -0.511005
-0.997772 0.307699 1.74022 109 26 18 0.101061 0.866847 -0.488224
-1.00682 0.368002 1.73862 163 55 34 0.432233 -0.308295 -0.847425
-0.991742 0.44941 1.74003 144 51 41 0.337182 -0.156796 -0.92829
-1.00682 0.355941 1.73987 167 52 31 0.511411 0.259591 -0.81919
-1.00682 0.358956 1.74007 167 52 31 0.530714 -0.102116 -0.841377
-0.991742 0.452425 1.73875 143 43 31 0.417601 -0.440174 -0.794894
-0.928424 0.340865 1.73991 155 54 37 -0.100683 -0.605554 -0.789409
-0.988727 0.452425 1.74035 143 43 31 0.553154 -0.47628 -0.683504
-0.988727 0.45544 1.73829 141 41 29 0.597689 -0.317371 -0.736236
-0.997772 0.44338 1.73911 128 49 42 -0.024044 0.325233 -0.945328
-1.00079 0.446395 1.74022 128 49 43 0.331938 -0.299191 -0.894596
-0.997772 0.446395 1.73893 128 49 42 0.03699 -0.208815 -0.977255
-0.994757 0.44338 1.73865 128 49 42 -0.126221 0.285659 -0.949983
-0.994757 0.446395 1.73938 128 49 42 0.144796 0.052127 -0.988087
-0.994757 0.44941 1.73871 144 54 43 0.405515 -0.313002 -0.858829
-0.988727 0.364987 1.73941 160 46 26 0.180041 -0.956218 -0.230719
-0.99919 0.313729 1.74361 128 30 19 0.362048 0.125271 -0.923704
-0.99965 0.316744 1.74361 128 30 19 0.365783 0.019252 -0.930501
-0.98965 0.307699 1.74361 114 28 20 0.344295 0.498027 -0.795883
-0.991742 0.308826 1.74361 114 28 20 0.204002 0.578262 -0.789934
-0.991742 0.362852 1.74361 160 46 26 0.152762 -0.898012 -0.4126
-0.988727 0.363757 1.74361 160 46 26 0.406599 -0.877715 -0.253562
-0.979681 0.302955 1.74361 115 30 22 0.31356 0.787878 -0.530027
-0.976666 0.302047 1.74361 115 30 22 0.256608 0.843579 -0.471728
-0.986578 0.364987 1.74361 160 46 26 0.494554 -0.850989 -0.176732
-0.975673 0.301669 1.74361 115 30 22 0.370148 0.818138 -0.440047
-0.985712 0.365556 1.74361 160 46 26 0.436397 -0.888534 -0.14165
-0.982697 0.367122 1.74361 167 57 35 0.28314 -0.953802 -0.100469
-0.979681 0.367609 1.74361 167 57 35 -0.028228 -0.990221 -0.136621
-0.999945 0.31976 1.74361 128 30 19 0.314918 -0.090918 -0.944754
-0.997772 0.324922 1.74361 128 30 19 0.346646 -0.11283 -0.931185
-0.997498 0.32579 1.74361 128 30 19 0.423226 -0.116704 -0.898476
-0.996701 0.328805 1.74361 122 28 19 0.528837 -0.054419 -0.846977
-0.996612 0.33182 1.74361 121 28 19 0.502893 -0.014831 -0.864221
-0.99673 0.334835 1.74361 134 31 19 0.481844 -0.022945 -0.875957
-0.996098 0.33785 1.74361 135 31 19 0.534248 -0.048822 -0.843917
-0.985712 0.322705 1.74361 123 28 18 0.000978 -0.999999 0.000978
-0.986726 0.322775 1.74361 123 28 18 -0.999999 0.000978 0.000978
-0.995997 0.340865 1.74361 166 51 30 0.651261 -0.032352 -0.758164
-0.985712 0.32308 1.74361 123 28 18 0.000978 0.999999 0.000978
-0.996128 0.343881 1.74361 166 51 30 0.637115 0.104469 -0.763656
-0.997772 0.348788 1.74361 166 51 31 0.648925 0.363069 -0.668639
-0.998493 0.349911 1.74361 166 51 31 0.590606 0.281772 -0.756167
-0.996757 0.346896 1.74361 166 51 31 0.661025 0.220342 -0.717283
-0.984673 0.322775 1.74361 123 28 18 0.999999 0.000978 0.000978
-1.00146 0.355941 1.74361 166 51 29 0.57227 0.255562 -0.779228
-1.00151 0.358956 1.74361 166 51 29 0.433758 0.025203 -0.900677
-0.92772 0.33785 1.74361 161 51 32 -0.150077 -0.824678 -0.545328
-1.00079 0.360093 1.74361 166 51 29 0.197881 -0.343088 -0.918223
-0.931439 0.339507 1.74361 155 54 37 -0.385998 -0.833441 -0.395451
-0.928424 0.338194 1.74361 155 54 37 -0.35418 -0.793299 -0.495211
-0.997772 0.361543 1.74361 166 51 29 0.245173 -0.504225 -0.828038
-0.979787 0.458455 1.74361 140 40 29 0.487745 -0.32887 -0.808671
-0.979681 0.458578 1.74361 140 40 29 0.541164 -0.368902 -0.75568
-0.996937 0.361971 1.74361 166 51 29 0.244416 -0.558887 -0.792405
-0.994757 0.362662 1.74361 163 49 29 -0.001374 -0.784741 -0.619822
-0.985504 0.44941 1.74361 138 47 40 0.523053 0.249886 -0.814845
-0.973651 0.300743 1.74361 108 26 21 0.32361 0.836384 -0.442424
-0.985016 0.452425 1.74361 138 47 40 0.368427 -0.266998 -0.89049
-0.982697 0.454277 1.74361 142 54 43 0.333222 -0.376219 -0.864536
-0.988727 0.306632 1.74361 110 26 18 0.278014 0.760963 -0.586212
-0.981668 0.45544 1.74361 141 47 36 0.392409 -0.269124 -0.879538
-0.985712 0.30633 1.74361 110 26 18 0.237651 0.716101 -0.656294
-0.982697 0.304263 1.74361 110 27 19 0.376334 0.751038 -0.542507
-0.98314 0.304684 1.74361 110 27 19 0.450454 0.631305 -0.631305
-0.997772 0.312102 1.74361 116 29 20 0.263311 0.292088 -0.91943
-0.994757 0.309471 1.74361 117 29 19 0.258332 0.689415 -0.676736
-0.996532 0.310714 1.74361 117 29 19 0.385441 0.446216 -0.807667
-1.00682 0.316744 1.74072 124 30 21 0.343585 0.166884 -0.924175
-1.0038 0.313729 1.74134 124 30 21 0.486549 0.150494 -0.860593
-1.0038 0.316744 1.74186 124 30 21 0.382828 0.141632 -0.912898
-1.00682 0.31976 1.74122 124 30 21 0.288796 -0.01106 -0.957327
-1.0038 0.31976 1.74222 124 30 21 0.31968 -0.05007 -0.946202
-1.00079 0.313729 1.74291 128 30 19 0.423792 0.107696 -0.899334
-1.00079 0.316744 1.7431 128 30 19 0.376684 0.071047 -0.923613
-0.991742 0.307699 1.74234 114 28 20 0.297499 0.715605 -0.631984
-0.979681 0.301669 1.74172 115 30 22 0.231251 0.828521 -0.509977
-1.00079 0.31976 1.74333 128 30 19 0.338173 -0.080896 -0.937601
-0.976666 0.301669 1.74286 115 30 22 0.23464 0.832741 -0.501485
-0.997772 0.32579 1.74348 128 30 19 0.376553 -0.169094 -0.910832
-1.00682 0.32579 1.74072 118 26 17 0.262306 -0.088289 -0.960937
-1.0038 0.32579 1.74153 118 26 17 0.270095 -0.110909 -0.956424
-1.0038 0.310714 1.74074 117 29 21 0.495952 0.193286 -0.846565
-0.985712 0.458455 1.74094 146 56 46 0.292682 -0.334282 -0.895875
-0.985712 0.322775 1.74339 123 28 18 0.000978 0.000978 -0.999999
-0.982697 0.458455 1.7415 142 42 30 0.3618 -0.377328 -0.852481
-0.982697 0.46147 1.74067 142 42 30 0.325561 -0.258405 -0.909526
-1.0038 0.328805 1.74113 118 26 17 0.251137 -0.155466 -0.955385
-0.985712 0.304684 1.74152 112 26 18 0.41803 0.725356 -0.546909
-1.00079 0.32579 1.74231 122 28 19 0.304986 -0.139616 -0.942067
-0.931439 0.340865 1.74128 155 54 37 -0.390558 -0.782736 -0.484551
-0.985712 0.446395 1.74111 86 51 56 0.503242 0.600861 -0.621058
-1.00079 0.328805 1.74185 122 28 19 0.30779 -0.113256 -0.944689
-0.997772 0.328805 1.74282 122 28 19 0.393476 -0.094599 -0.914455
-0.994757 0.307699 1.74137 114 28 19 0.208983 0.763173 -0.611468
-1.0038 0.361971 1.74276 166 55 35 0.388765 -0.285901 -0.875855
-1.0038 0.364987 1.74089 166 55 35 0.158019 -0.447962 -0.879977
-1.00079 0.310714 1.74248 116 29 20 0.359863 0.341487 -0.868266
-1.00079 0.361971 1.743 164 52 30 0.075644 -0.433234 -0.898101
-1.00079 0.33182 1.74164 122 29 19 0.405709 -0.094895 -0.909063
-1.00079 0.364987 1.74126 164 52 30 0.036976 -0.497126 -0.86689
-0.997772 0.361971 1.74327 163 50 29 0.077531 -0.511703 -0.855657
-0.997772 0.310714 1.74299 118 29 20 0.181294 0.604821 -0.775451
-0.997772 0.364987 1.74111 163 50 29 0.023773 -0.650262 -0.759338
-0.988727 0.44941 1.74177 144 51 41 0.509667 0.148347 -0.847486
-0.985712 0.44941 1.74349 144 51 41 0.474289 0.298974 -0.828049
-0.994757 0.364987 1.74071 163 49 29 -0.100932 -0.776738 -0.621683
-0.985712 0.452425 1.74329 146 54 43 0.596493 -0.264229 -0.757878
-0.985712 0.45544 1.74171 139 42 31 0.461261 -0.322725 -0.826491
-0.997772 0.33182 1.74285 122 28 19 0.421447 0.006524 -0.906829
-0.982697 0.45544 1.74306 142 54 43 0.388773 -0.360669 -0.847805
-1.00079 0.334835 1.7411 125 28 17 0.553077 -0.108873 -0.825986
-0.997772 0.334835 1.74305 119 26 17 0.494019 -0.074173 -0.866282
-1.00079 0.33785 1.74083 136 35 20 0.52674 -0.057285 -0.848094
-0.997772 0.33785 1.7426 136 33 20 0.499423 -0.104464 -0.860037
-1.00079 0.340865 1.74092 166 51 32 0.428492 -0.104681 -0.897461
-0.997772 0.340865 1.74192 167 52 32 0.528203 -0.066201 -0.846533
-0.997772 0.343881 1.74241 167 51 31 0.616476 0.103966 -0.780479
-0.997772 0.346896 1.74271 166 51 31 0.664095 0.117368 -0.738378
-1.00079 0.349911 1.74137 166 51 31 0.601795 0.365669 -0.71002
-1.0038 0.355941 1.74209 167 52 31 0.555196 0.294301 -0.77791
-1.0038 0.358956 1.74246 167 52 31 0.600304 0.034983 -0.799006
-0.967621 0.361729 1.74361 160 48 29 -0.631102 -0.760636 -0.152127
-0.96785 0.361971 1.74361 160 48 29 -0.616661 -0.780714 -0.101068
-0.973651 0.366504 1.74361 166 53 32 -0.44371 -0.894246 -0.058706
-0.94953 0.348176 1.74361 158 48 30 -0.447911 -0.870525 -0.203867
-0.952321 0.349911 1.74361 158 48 30 -0.536119 -0.830168 -0.152965
-0.9435 0.345145 1.74361 158 48 30 -0.423777 -0.881514 -0.208197
-0.95556 0.352264 1.74361 158 48 30 -0.600703 -0.782275 -0.164928
-0.960243 0.355941 1.74361 158 48 30 -0.605122 -0.790866 -0.091421
-0.961591 0.356967 1.74361 158 48 30 -0.585403 -0.787161 -0.194115
-0.937469 0.342518 1.74361 147 64 50 -0.403907 -0.872862 -0.273809
-0.940597 0.343881 1.74361 147 64 50 -0.372438 -0.896501 -0.23995
-0.985712 0.364642 1.74662 164 54 32 0.439228 -0.845862 -0.302648
-0.985229 0.364987 1.74662 164 54 32 0.456915 -0.841034 -0.289638
-0.991742 0.323587 1.74662 128 30 19 0.247325 0.412208 -0.876878
-0.992522 0.32579 1.74662 128 30 19 0.537389 -0.006768 -0.843308
-0.991742 0.327848 1.74662 121 27 17 0.422714 -0.140905 -0.895242
-0.973651 0.444253 1.74662 77 46 52 0.165308 0.363112 -0.916964
-0.991742 0.341733 1.74662 166 51 29 0.438445 0.14519 -0.886953
-0.992427 0.343881 1.74662 166 51 29 0.592554 0.154514 -0.790572
-0.993568 0.346896 1.74662 166 51 31 0.605925 0.261038 -0.751474
-0.982697 0.366158 1.74662 167 57 35 0.301421 -0.918685 -0.25527
-0.994757 0.349251 1.74662 166 51 31 0.612906 0.357937 -0.704434
-0.979681 0.36677 1.74662 164 54 32 -0.05538 -0.970995 -0.232596
-0.976752 0.44941 1.74662 120 42 38 0.237074 -0.025272 -0.971163
-0.995142 0.349911 1.74662 166 51 31 0.615711 0.132684 -0.77672
-0.996311 0.355941 1.74662 166 51 29 0.553028 0.01784 -0.832972
-0.973651 0.446481 1.74662 129 32 22 0.052025 -0.142201 -0.98847
-0.976446 0.44941 1.74662 129 32 22 -0.050812 -0.013481 -0.998617
-0.976666 0.449459 1.74662 131 36 25 0.226196 -0.170639 -0.959019
-0.994757 0.3582 1.74662 166 51 29 0.394858 -0.33292 -0.856301
-0.973651 0.451009 1.74662 125 36 28 0.404118 0.066227 -0.912306
-0.974504 0.452425 1.74662 125 36 28 0.172295 -0.214383 -0.961434
-0.993898 0.358956 1.74662 166 51 29 0.456753 -0.483136 -0.746965
-0.973119 0.44941 1.74662 126 35 27 0.550542 0.081509 -0.830819
-0.991742 0.360633 1.74662 166 51 29 0.548734 -0.60614 -0.575748
-0.973651 0.452895 1.74662 126 29 22 0.41643 -0.375262 -0.828109
-0.987177 0.313729 1.74662 123 28 18 0.299677 0.115875 -0.946978
-0.987249 0.316744 1.74662 123 28 18 0.342979 -0.067019 -0.936949
-0.985862 0.31976 1.74662 123 28 18 0.422597 -0.003901 -0.906309
-0.98707 0.322775 1.74662 121 28 18 0.414709 0.348982 -0.840374
-0.988727 0.32321 1.74662 121 28 18 0.086065 0.48958 -0.8677
-0.991304 0.328805 1.74662 125 28 18 0.504706 -0.161328 -0.848083
-0.990384 0.33182 1.74662 118 26 18 0.480198 -0.106869 -0.870626
-0.979681 0.305469 1.74662 117 29 21 0.497981 0.41308 -0.762483
-0.990394 0.334835 1.74662 163 51 31 0.42565 0.046996 -0.903667
-0.991105 0.33785 1.74662 163 51 31 0.412437 0.074865 -0.907905
-0.981218 0.307699 1.74662 117 29 21 0.517133 0.396414 -0.75857
-0.991492 0.340865 1.74662 167 49 29 0.420454 0.066674 -0.904861
-0.985712 0.31189 1.74662 114 28 20 0.317557 0.270729 -0.90877
-0.982697 0.309277 1.74662 114 28 20 0.371553 0.444907 -0.814866
-0.98454 0.310714 1.74662 114 28 20 0.338402 0.362902 -0.868209
-0.990505 0.361971 1.74662 166 51 29 0.562404 -0.789859 -0.244591
-0.928424 0.337047 1.74662 161 51 32 -0.384798 -0.896886 -0.218003
-0.976666 0.303594 1.74662 117 30 22 0.346632 0.803483 -0.484006
-0.930143 0.33785 1.74662 161 51 32 -0.418933 -0.87812 -0.231084
-0.931439 0.338498 1.74662 155 54 37 -0.470918 -0.867017 -0.162841
-0.978773 0.304684 1.74662 117 30 22 0.412975 0.618633 -0.668389
-0.973651 0.302164 1.74662 117 30 22 0.266091 0.77623 -0.571544
-0.988727 0.363177 1.74662 163 53 32 0.470048 -0.876192 -0.106506
-0.997772 0.313729 1.74415 114 28 19 0.287291 0.16475 -0.943568
-0.985712 0.364987 1.74586 164 54 32 0.444195 -0.865804 -0.230379
-0.979681 0.44338 1.74377 97 51 54 0.392916 0.480231 -0.784216
-0.991742 0.313729 1.74557 123 28 18 0.189352 0.121637 -0.974346
-0.994757 0.310714 1.74444 120 29 19 0.208884 0.325404 -0.922215
-0.982697 0.446395 1.74401 97 51 54 0.459256 0.336157 -0.822242
-0.988727 0.313729 1.74619 123 28 18 0.226813 0.057623 -0.972232
-0.991742 0.310714 1.74486 120 29 19 0.178108 0.366189 -0.913336
-0.991742 0.316744 1.74555 123 28 18 0.167069 -0.045564 -0.984892
-0.988727 0.316744 1.74614 123 28 18 0.227129 -0.105317 -0.968153
-0.991742 0.31976 1.74529 123 28 18 0.139147 0.028282 -0.989868
-0.994757 0.313729 1.74496 120 29 19 0.251657 0.138345 -0.957877
-0.988727 0.31976 1.7456 123 28 18 0.21669 0.032324 -0.975705
-0.997772 0.316744 1.74442 128 30 19 0.283879 0.003655 -0.958853
-0.979681 0.446395 1.74559 97 51 54 0.369842 0.312006 -0.87514
-0.991742 0.322775 1.74573 121 28 18 0.181776 0.246407 -0.951967
-0.994757 0.316744 1.74512 128 30 19 0.187264 -0.008042 -0.982277
-0.988727 0.322775 1.7463 121 28 18 0.147818 0.299705 -0.942511
-0.997772 0.31976 1.74418 128 30 19 0.284486 -0.054368 -0.957137
-0.985712 0.322775 1.74452 121 28 18 0.000978 0.000978 0.999999
-0.994757 0.31976 1.74491 128 30 19 0.190761 -0.012717 -0.981554
-0.991742 0.328805 1.74631 125 28 18 0.422882 -0.138113 -0.895598
-0.997772 0.322775 1.74389 128 30 19 0.356474 -0.104367 -0.928458
-0.991742 0.33182 1.74591 118 26 18 0.427947 -0.041587 -0.902847
-0.994757 0.322775 1.745 128 30 19 0.368689 0.035175 -0.928887
-0.994757 0.32579 1.7449 128 30 19 0.513276 -0.039906 -0.857295
-0.982697 0.44941 1.74503 138 50 44 0.401703 0.071684 -0.91296
-0.979681 0.44941 1.74611 133 45 38 0.261601 -0.099228 -0.960062
-0.994757 0.328805 1.74493 120 26 17 0.502857 -0.080288 -0.860633
-0.991742 0.334835 1.74604 163 51 31 0.411419 0.052265 -0.909947
-0.982697 0.452425 1.74435 138 50 42 0.30177 -0.261342 -0.916862
-0.991742 0.33785 1.74633 163 51 31 0.476597 0.050819 -0.877652
-0.994757 0.33182 1.74457 119 27 18 0.423693 -0.041434 -0.904858
-0.988727 0.307699 1.74405 120 29 21 0.306674 0.417632 -0.855298
-0.994757 0.334835 1.74464 121 25 17 0.466672 -0.001322 -0.884429
-0.991742 0.340865 1.74652 167 49 29 0.491919 0.065496 -0.868174
-0.994757 0.33785 1.74448 161 52 32 0.529549 0.017697 -0.848095
-0.985712 0.307699 1.74502 120 29 21 0.222166 0.47607 -0.850881
-0.979681 0.458455 1.74368 146 56 46 0.409409 -0.250444 -0.877304
-0.982697 0.304684 1.74421 117 29 21 0.476472 0.540002 -0.69381
-0.994757 0.340865 1.74478 165 51 30 0.564539 0.054905 -0.823579
-0.991742 0.361971 1.74491 166 51 29 0.266301 -0.814477 -0.515472
-0.979681 0.304684 1.74601 116 29 21 0.368228 0.715181 -0.594075
-0.994757 0.343881 1.7447 166 51 29 0.637842 0.082818 -0.765701
-0.982697 0.307699 1.74569 118 29 21 0.352667 0.510482 -0.784241
-0.988727 0.310714 1.74561 114 28 20 0.240131 0.339095 -0.909589
-0.997772 0.349911 1.74434 166 51 31 0.622814 0.202453 -0.755722
-0.928424 0.33785 1.74434 161 51 32 -0.370116 -0.872743 -0.31833
-0.985712 0.310714 1.74622 114 28 20 0.221499 0.348898 -0.910609
-0.994757 0.346896 1.74549 166 51 31 0.64702 0.251531 -0.71979
-0.979681 0.452425 1.74532 142 55 44 0.278536 -0.261396 -0.92417
-0.979681 0.45544 1.74451 149 71 60 0.335817 -0.207207 -0.918854
-1.00079 0.355941 1.744 166 51 29 0.498955 0.157487 -0.852198
-0.973651 0.44941 1.74638 129 32 22 0.000978 0.000978 -0.999999
-1.00079 0.358956 1.74393 166 51 29 0.429044 -0.113943 -0.896068
-0.976666 0.452425 1.74604 131 36 25 0.222031 -0.222031 -0.949423
-0.997772 0.355941 1.74576 166 51 29 0.503962 0.083288 -0.859701
-0.997772 0.358956 1.74511 166 51 29 0.329989 -0.372965 -0.867182
-0.976666 0.45544 1.74528 143 68 60 0.240218 -0.128549 -0.96217
-0.994757 0.358956 1.7462 166 51 29 0.318187 -0.489152 -0.812088
-0.994757 0.361971 1.74435 166 51 29 0.280783 -0.569498 -0.77255
-0.98121 0.313729 1.74964 123 28 18 0.557256 0.251311 -0.791397
