ply
format ascii 1.0
element vertex 748
property float x
property float y
property float z
property uchar red
property uchar green
property uchar blue
property float nx
property float ny
property float nz
end_header
-0.771637 1.16554 1.77979 56 86 110 0.175778 -0.381568 -0.907474
-0.747961 1.22128 1.77979 39 61 80 0.708288 0.43957 -0.552365
-0.768991 1.16701 1.77979 56 86 110 0.240925 -0.346055 -0.906753
-0.783698 1.15087 1.77979 52 82 101 0.223762 -0.550919 -0.804002
-0.745384 1.21827 1.77979 39 61 80 0.649121 0.531099 -0.544587
-0.749904 1.2243 1.77979 39 61 80 0.630137 0.552426 -0.545668
-0.768622 1.16806 1.77979 56 86 110 0.38195 -0.201867 -0.901867
-0.781986 1.15193 1.77979 52 82 101 0.331609 -0.418792 -0.845369
-0.767926 1.17003 1.77979 59 91 114 0.457653 -0.346803 -0.818708
-0.82154 1.12781 1.77979 66 90 113 0.493591 -0.624991 -0.604776
-0.780683 1.15385 1.77979 52 82 101 0.36757 -0.280553 -0.886669
-0.765607 1.17244 1.77979 58 96 123 0.389162 -0.446815 -0.805549
-0.81988 1.12952 1.77979 66 90 113 0.366586 -0.549065 -0.751094
-0.779699 1.15495 1.77979 52 82 101 0.285745 -0.30919 -0.907056
-0.764438 1.17304 1.77979 58 96 123 0.348027 -0.622527 -0.700955
-0.777668 1.1568 1.77979 52 82 101 0.338893 -0.279698 -0.898288
-0.762592 1.17359 1.77979 59 97 123 0.393713 -0.571625 -0.719885
-0.817307 1.13083 1.77979 66 90 113 0.285718 -0.617726 -0.732652
-0.816864 1.13106 1.77979 66 90 113 0.26691 -0.576462 -0.772302
-0.774453 1.20621 1.77979 61 56 62 -0.395247 -0.315275 -0.862776
-0.759869 1.17606 1.77979 65 100 125 0.503813 -0.487185 -0.713319
-0.813849 1.13249 1.77979 66 90 113 0.268189 -0.60779 -0.747439
-0.759577 1.17643 1.77979 64 101 128 0.552445 -0.407325 -0.727249
-0.810834 1.13374 1.77979 66 90 113 0.268184 -0.626821 -0.731555
-0.757643 1.17907 1.77979 61 98 125 0.566074 -0.388868 -0.726871
-0.756562 1.22925 1.77979 30 55 75 0.371988 0.72595 -0.578465
-0.759131 1.23033 1.77979 30 55 75 0.30879 0.674165 -0.670932
-0.756562 1.18088 1.77979 65 102 130 0.434583 -0.60442 -0.667693
-0.750532 1.22498 1.77979 37 63 84 0.535899 0.613664 -0.579853
-0.753239 1.22731 1.77979 37 63 84 0.531383 0.612356 -0.585365
-0.753547 1.18184 1.77979 69 103 129 0.241114 -0.717039 -0.654002
-0.768622 1.23427 1.77979 39 54 70 0.503242 0.621058 -0.600861
-0.753547 1.22752 1.77979 37 63 84 0.477986 0.704488 -0.524619
-0.752981 1.18209 1.77979 69 103 129 0.427563 -0.660476 -0.617221
-0.770561 1.23636 1.77979 39 54 70 0.691864 0.445127 -0.568495
-0.750532 1.18372 1.77979 75 104 129 0.539527 -0.590266 -0.600414
-0.765607 1.23293 1.77979 39 54 70 0.232618 0.849891 -0.472837
-0.74939 1.1851 1.77979 75 104 129 0.600294 -0.376623 -0.705551
-0.747763 1.18812 1.77979 75 104 129 0.648267 -0.359419 -0.671244
-0.76685 1.23334 1.77979 39 54 70 0.301036 0.716369 -0.629439
-0.747516 1.18872 1.77979 69 103 127 0.681782 -0.248352 -0.688109
-0.762592 1.23218 1.77979 39 54 70 0.306713 0.749921 -0.586127
-0.746422 1.19113 1.77979 74 103 127 0.636066 -0.416847 -0.649352
-0.744501 1.19368 1.77979 72 103 127 0.641983 -0.503813 -0.577953
-0.744048 1.19415 1.77979 77 104 125 0.671013 -0.456824 -0.583998
-0.741943 1.19716 1.77979 71 98 121 0.660847 -0.450045 -0.600618
-0.771637 1.23918 1.77979 36 56 73 0.781769 0.293362 -0.550251
-0.741486 1.19791 1.77979 71 98 121 0.693905 -0.39063 -0.6049
-0.77169 1.23937 1.77979 36 56 73 0.83135 0.228124 -0.506771
-0.740587 1.20018 1.77979 71 98 121 0.850169 -0.265008 -0.454955
-0.740052 1.20319 1.77979 76 96 113 0.840695 -0.046008 -0.539551
-0.77259 1.24239 1.77979 41 53 66 0.849323 0.199929 -0.488548
-0.740174 1.20621 1.77979 71 95 114 0.816838 0.242426 -0.523456
-0.741486 1.208 1.77979 64 89 107 0.654045 0.460006 -0.600517
-0.759577 1.23054 1.77979 36 51 67 0.314019 0.587778 -0.745593
-0.742308 1.20922 1.77979 64 89 107 0.764296 0.116788 -0.634203
-0.74227 1.21224 1.77979 52 81 99 0.811086 0.1063 -0.575187
-0.77308 1.2454 1.77979 37 53 69 0.886669 0.36757 -0.280553
-0.744501 1.21707 1.77979 44 73 94 0.682326 0.423341 -0.595998
-0.743582 1.21525 1.77979 46 73 90 0.78096 0.311426 -0.541402
-0.77377 1.24842 1.77979 37 53 69 0.971916 0.205476 -0.114714
-0.771637 1.19275 1.77979 38 65 86 -0.153042 0.680357 -0.716723
-0.769521 1.19415 1.77979 38 65 86 -0.366859 0.315103 -0.875286
-0.767413 1.19716 1.77979 39 58 75 -0.737932 -0.064731 -0.671763
-0.772067 1.20319 1.77979 39 47 60 -0.40908 -0.140135 -0.901674
-0.810834 1.13384 1.77968 54 91 117 0.237781 -0.554822 -0.797266
-0.810834 1.13686 1.77757 54 91 117 0.342404 -0.485736 -0.804251
-0.789728 1.164 1.77691 83 81 81 0.387769 -0.338333 -0.857418
-0.786713 1.164 1.77824 104 104 104 0.260441 -0.093656 -0.960937
-0.807819 1.13686 1.77918 54 91 117 0.416201 -0.422629 -0.805085
-0.807819 1.13987 1.77761 54 89 115 0.421432 -0.346232 -0.838164
-0.786713 1.16701 1.77832 104 104 104 0.252438 -0.043099 -0.966653
-0.804804 1.13987 1.77919 43 70 93 0.385095 -0.360149 -0.849703
-0.786713 1.17003 1.77887 44 43 45 0.053836 -0.361097 -0.930973
-0.807819 1.14289 1.77679 51 78 99 0.346535 -0.346535 -0.871681
-0.780683 1.18812 1.7772 33 53 69 0.258877 0.30805 -0.915471
-0.786713 1.15796 1.77845 47 70 89 -0.024435 0.064807 -0.997599
-0.777668 1.18812 1.77771 33 53 69 -0.068199 0.488525 -0.869881
-0.804804 1.14289 1.77761 49 74 95 0.361581 -0.460339 -0.81077
-0.801789 1.14289 1.77919 72 94 112 0.297576 -0.635364 -0.712573
-0.771637 1.20621 1.77858 61 56 62 -0.22802 -0.46359 -0.856207
-0.783698 1.15796 1.778 47 70 89 0.077496 -0.077496 -0.993976
-0.798774 1.14591 1.77767 66 91 111 0.486483 -0.62115 -0.614416
-0.747516 1.21827 1.77734 39 61 80 0.648789 0.513976 -0.561161
-0.750532 1.2243 1.77919 39 61 80 0.555026 0.528033 -0.64275
-0.795758 1.14892 1.77723 57 86 109 0.324679 -0.599283 -0.73174
-0.765607 1.20621 1.77737 61 73 85 -0.431745 -0.019805 -0.901778
-0.792743 1.14892 1.77903 57 86 109 0.463734 -0.322256 -0.825289
-0.792743 1.15193 1.77809 57 86 109 0.489798 -0.157382 -0.857513
-0.762592 1.23033 1.77732 62 89 111 0.405333 0.740101 -0.536615
-0.786713 1.16098 1.77836 47 70 89 -0.015162 0.019206 -0.999701
-0.789728 1.15193 1.77935 53 82 103 0.072636 -0.215445 -0.973811
-0.783698 1.16098 1.77804 47 70 89 0.068353 0.086282 -0.993923
-0.753547 1.2243 1.77725 36 60 80 0.472163 0.545574 -0.692395
-0.786713 1.15193 1.77905 53 82 103 0.052265 -0.411419 -0.909947
-0.780683 1.15796 1.77871 50 78 100 0.22712 -0.136272 -0.964285
-0.792743 1.15495 1.77805 53 82 103 0.464102 0.079441 -0.882212
-0.756562 1.22731 1.77728 30 55 75 0.461293 0.632391 -0.622326
-0.780683 1.16098 1.77852 50 78 100 0.161083 0.038243 -0.9862
-0.822895 1.13083 1.7781 87 87 102 0.070669 -0.229365 -0.970772
-0.759577 1.23033 1.7796 30 55 75 0.403308 0.722662 -0.561339
-0.82591 1.13384 1.77822 87 87 102 -0.405058 -0.532971 -0.74288
-0.792743 1.15796 1.77904 53 82 103 0.425646 -0.095666 -0.899819
-0.753547 1.22731 1.77951 37 63 84 0.507343 0.527435 -0.68148
-0.780683 1.164 1.77896 44 53 68 0.046912 0.075277 -0.996059
-0.777668 1.15796 1.77953 51 80 100 0.249001 -0.143604 -0.957798
-0.822895 1.13384 1.77684 87 87 102 -0.147103 -0.48209 -0.863684
-0.789728 1.15495 1.77908 52 79 101 -0.112098 -0.009795 -0.993649
-0.777668 1.16098 1.77901 51 80 100 0.183829 -0.033956 -0.982372
-0.750532 1.1851 1.77881 75 104 129 0.657729 -0.405903 -0.634535
-0.777668 1.164 1.77902 51 80 99 0.16457 -0.012485 -0.986286
-0.81988 1.13083 1.77882 66 90 113 0.206655 -0.496273 -0.843212
-0.786713 1.15495 1.77734 52 79 101 -0.121295 -0.095387 -0.988023
-0.774653 1.164 1.77977 51 79 98 0.10522 -0.148759 -0.98326
-0.750532 1.18812 1.7768 75 104 129 0.668831 -0.406609 -0.622361
-0.81988 1.13384 1.77714 66 90 113 0.146939 -0.478641 -0.865628
-0.789728 1.15796 1.77879 52 79 101 -0.190484 -0.04141 -0.980816
-0.783698 1.16701 1.77861 84 93 103 0.062388 -0.36769 -0.927853
-0.747516 1.19113 1.7787 69 103 127 0.62864 -0.351058 -0.693953
-0.768622 1.23334 1.77853 39 54 70 0.5086 0.730594 -0.455586
-0.816864 1.13384 1.77783 66 90 113 0.239074 -0.516708 -0.822105
-0.780683 1.16701 1.7792 51 65 81 0.063013 -0.304777 -0.950337
-0.783698 1.15193 1.77922 52 82 101 0.136318 -0.342861 -0.929443
-0.771637 1.23636 1.77817 39 54 70 0.764835 0.440558 -0.470038
-0.747516 1.19415 1.77704 72 103 127 0.570764 -0.418561 -0.706424
-0.813849 1.13384 1.77875 66 90 113 0.240552 -0.541631 -0.805463
-0.783698 1.17003 1.77716 84 93 103 -0.258456 -0.233309 -0.937426
-0.783698 1.15495 1.7783 52 82 101 0.228807 -0.167968 -0.958871
-0.744501 1.19415 1.77934 72 103 127 0.541793 -0.43244 -0.720733
-0.780683 1.15495 1.77952 52 82 101 0.302847 -0.191199 -0.933663
-0.777668 1.16701 1.77901 56 82 101 0.091219 -0.321248 -0.942592
-0.774653 1.16701 1.77886 51 80 101 -0.018211 -0.261019 -0.965162
-0.774653 1.17003 1.77851 53 82 104 0.108939 -0.454147 -0.884242
-0.792743 1.16098 1.77749 57 78 94 0.318509 -0.492818 -0.809742
-0.744501 1.19716 1.77744 69 94 113 0.563958 -0.437525 -0.700373
-0.789728 1.16098 1.77822 49 69 87 0.137068 -0.275466 -0.951489
-0.813849 1.13686 1.77679 53 89 117 0.226894 -0.544855 -0.80725
-0.741486 1.20018 1.77845 71 98 121 0.688385 -0.237863 -0.685235
-0.771637 1.16701 1.77899 56 86 110 0.194061 -0.36656 -0.909931
-0.744501 1.20621 1.77699 62 94 116 0.455606 0.210625 -0.864905
-0.771637 1.17003 1.77783 55 86 110 0.153834 -0.334 -0.929935
-0.741486 1.20319 1.77799 72 96 118 0.724826 -0.001381 -0.68893
-0.768622 1.17003 1.77919 56 86 110 0.372586 -0.332721 -0.866301
-0.741486 1.20621 1.77864 70 93 112 0.553507 0.272811 -0.786895
-0.771637 1.19113 1.7776 38 65 86 -0.120367 0.729632 -0.673163
-0.771637 1.17304 1.77698 52 91 116 0.289446 -0.361432 -0.886334
-0.744501 1.20922 1.77765 55 85 106 0.642696 0.098088 -0.759816
-0.768622 1.19113 1.777 38 65 86 -0.395875 0.560138 -0.727687
-0.768622 1.17304 1.77764 53 91 115 0.342451 -0.519304 -0.782975
-0.768622 1.19415 1.77908 38 65 86 -0.599987 0.427137 -0.676439
-0.744501 1.21525 1.77829 44 73 94 0.758554 0.383355 -0.52691
-0.765607 1.17304 1.77921 58 96 123 0.263313 -0.764711 -0.588118
-0.759577 1.1851 1.77678 54 93 119 0.000978 0.000978 -0.999999
-0.762592 1.17606 1.77765 59 97 123 0.481238 -0.55837 -0.675746
-0.756562 1.18209 1.7778 62 98 125 0.298399 -0.806782 -0.509962
-0.753547 1.18209 1.77948 73 103 128 0.299476 -0.790679 -0.533986
-0.759577 1.17907 1.77816 64 101 128 0.569802 -0.466201 -0.676744
-0.765607 1.19716 1.777 39 58 75 -0.842365 -0.120753 -0.525205
-0.771637 1.20319 1.77963 39 47 60 -0.329969 -0.150488 -0.93192
-0.768622 1.20319 1.77857 39 47 60 -0.38105 -0.099701 -0.919163
-0.765607 1.20319 1.77688 39 47 60 -0.461699 0.085086 -0.882946
-0.805349 1.13384 1.78281 53 86 112 0.312063 -0.638678 -0.703354
-0.804804 1.1341 1.78281 53 86 112 0.419655 -0.595479 -0.68505
-0.801789 1.13627 1.78281 56 90 117 0.466786 -0.5839 -0.664208
-0.770725 1.15796 1.78281 63 93 115 0.395496 -0.33656 -0.854582
-0.801317 1.13686 1.78281 57 88 111 0.492541 -0.40151 -0.772135
-0.798774 1.13978 1.78281 57 88 111 0.458265 -0.416163 -0.785367
-0.768622 1.16008 1.78281 63 93 115 0.301342 -0.396181 -0.867314
-0.766343 1.16098 1.78281 62 90 111 0.299174 -0.484003 -0.822336
-0.765607 1.16137 1.78281 64 93 115 0.49551 -0.369615 -0.786037
-0.764097 1.164 1.78281 66 94 117 0.67107 -0.365889 -0.644818
-0.763435 1.16701 1.78281 67 95 118 0.648742 -0.152734 -0.745524
-0.762592 1.16935 1.78281 67 95 118 0.576599 -0.316407 -0.753273
-0.762077 1.17003 1.78281 75 103 127 0.440604 -0.553664 -0.706629
-0.759577 1.17189 1.78281 70 105 132 0.391974 -0.62352 -0.676445
-0.81988 1.12709 1.78281 70 90 113 0.146057 -0.733298 -0.664034
-0.816864 1.12767 1.78281 70 90 113 0.133247 -0.714146 -0.687197
-0.815844 1.12781 1.78281 63 89 113 0.209926 -0.65466 -0.72619
-0.757335 1.17304 1.78281 70 105 132 0.347763 -0.651444 -0.674301
-0.813849 1.12859 1.78281 66 90 113 0.295691 -0.596176 -0.746419
-0.756562 1.17392 1.78281 74 106 133 0.601083 -0.296534 -0.742137
-0.810834 1.12989 1.78281 66 90 113 0.376627 -0.629904 -0.679244
-0.755698 1.17606 1.78281 64 98 127 0.606882 -0.395217 -0.689563
-0.798517 1.13987 1.78281 67 94 115 0.215193 -0.605328 -0.766336
-0.809852 1.13083 1.78281 56 86 112 0.473007 -0.55992 -0.680261
-0.807819 1.13261 1.78281 56 86 112 0.402935 -0.621814 -0.671559
-0.795758 1.14059 1.78281 65 90 110 0.227324 -0.666296 -0.710193
-0.792743 1.14207 1.78281 59 86 108 0.355769 -0.673829 -0.647598
-0.791411 1.14289 1.78281 63 89 110 0.418167 -0.563616 -0.712371
-0.789728 1.14433 1.78281 63 89 110 0.306871 -0.589643 -0.747095
-0.786713 1.14567 1.78281 63 89 110 0.245971 -0.593776 -0.766112
-0.748649 1.18209 1.78281 59 82 100 0.475334 -0.592907 -0.650015
-0.786103 1.14591 1.78281 58 86 107 0.223762 -0.550919 -0.804002
-0.783698 1.14685 1.78281 52 82 101 0.217389 -0.571995 -0.790926
-0.750532 1.22708 1.78281 37 63 84 0.584647 0.658356 -0.474083
-0.780683 1.14808 1.78281 52 82 101 0.276992 -0.565064 -0.77716
-0.750826 1.22731 1.78281 37 63 84 0.57726 0.667613 -0.470174
-0.775226 1.15193 1.78281 52 82 101 0.362237 -0.406144 -0.838947
-0.774653 1.15252 1.78281 52 82 101 0.411028 -0.348514 -0.842374
-0.753547 1.22975 1.78281 37 63 84 0.525883 0.673735 -0.519162
-0.754135 1.23033 1.78281 37 63 84 0.531886 0.633198 -0.562279
-0.772733 1.15495 1.78281 64 89 108 0.435309 -0.337875 -0.834474
-0.771637 1.15655 1.78281 64 89 108 0.441728 -0.302235 -0.844707
-0.747516 1.18296 1.78281 80 105 123 0.531913 -0.518489 -0.669506
-0.745711 1.1851 1.78281 80 105 123 0.615208 -0.412902 -0.671588
-0.744501 1.18787 1.78281 80 105 123 0.662101 -0.29017 -0.690958
-0.744421 1.18812 1.78281 77 104 125 0.780894 -0.094875 -0.617417
-0.768622 1.23804 1.78281 46 48 59 0.578409 0.422619 -0.697737
-0.765607 1.23647 1.78281 46 48 59 0.11142 0.525267 -0.843611
-0.743684 1.19113 1.78281 77 101 124 0.769152 -0.382137 -0.512226
-0.762592 1.2365 1.78281 46 48 59 0.017771 0.545431 -0.837967
-0.741585 1.19415 1.78281 77 101 124 0.708772 -0.4853 -0.511983
-0.756562 1.23228 1.78281 33 54 74 0.519156 0.660286 -0.542678
-0.741486 1.19434 1.78281 76 97 113 0.781653 -0.377071 -0.496827
-0.758118 1.23334 1.78281 33 54 74 0.478315 0.619292 -0.622649
-0.740489 1.19716 1.78281 76 97 113 0.80852 -0.349242 -0.47363
-0.759577 1.23444 1.78281 33 53 70 0.395875 0.560138 -0.727687
-0.762212 1.23636 1.78281 33 53 70 0.415964 0.531052 -0.738212
-0.739499 1.20018 1.78281 76 97 113 0.830636 -0.360941 -0.423987
-0.738471 1.20189 1.78281 73 98 113 0.842434 -0.250122 -0.477226
-0.738471 1.20475 1.78281 65 88 103 0.869101 0.188034 -0.4575
-0.739022 1.20621 1.78281 65 88 103 0.879042 0.307135 -0.364628
-0.73828 1.20319 1.78281 75 93 109 0.854638 0.001342 -0.519223
-0.740036 1.20922 1.78281 57 83 101 0.858604 0.266884 -0.43769
-0.740852 1.21224 1.78281 54 80 97 0.850179 0.173597 -0.497051
-0.741486 1.21521 1.78281 42 68 86 0.818607 0.228841 -0.526796
-0.741496 1.21525 1.78281 42 68 86 0.78634 0.22489 -0.575408
-0.742364 1.21827 1.78281 42 66 83 0.71993 0.325182 -0.613154
-0.744501 1.2217 1.78281 38 61 80 0.554603 0.541117 -0.632146
-0.747256 1.2243 1.78281 38 61 80 0.511181 0.585412 -0.629275
-0.744087 1.22128 1.78281 38 58 76 0.675633 0.419988 -0.605912
-0.807819 1.13384 1.78178 52 82 108 0.412142 -0.590902 -0.693523
-0.774653 1.15796 1.78084 66 85 100 0.419218 -0.258795 -0.870219
-0.804804 1.13686 1.7807 53 86 112 0.415712 -0.487442 -0.767844
-0.774653 1.19415 1.78028 34 44 55 0.037003 0.117737 -0.992355
-0.801789 1.13686 1.78241 56 90 117 0.490786 -0.31404 -0.812716
-0.774653 1.20621 1.77996 68 88 105 -0.541843 -0.192757 -0.818077
-0.801789 1.13987 1.78141 54 86 109 0.436406 -0.436406 -0.786829
-0.798774 1.13987 1.78274 57 88 111 0.323359 -0.571106 -0.754504
-0.756562 1.23033 1.7809 37 63 84 0.406542 0.61894 -0.672039
-0.798774 1.14289 1.78045 69 93 114 0.218438 -0.599543 -0.769956
-0.774653 1.16098 1.78008 66 85 100 0.354193 -0.218299 -0.909337
-0.750532 1.18209 1.78138 80 105 123 0.485247 -0.596065 -0.63972
-0.795758 1.14289 1.78085 65 90 110 0.268279 -0.416818 -0.868498
-0.771637 1.15796 1.78231 63 93 115 0.407844 -0.271391 -0.871786
-0.81988 1.12781 1.78163 70 90 113 0.324331 -0.750317 -0.57605
-0.747516 1.1851 1.78137 80 105 123 0.577876 -0.418918 -0.700405
-0.771637 1.16098 1.78128 63 93 115 0.35201 -0.295089 -0.888263
-0.816864 1.12781 1.78264 70 90 113 0.219759 -0.653042 -0.724736
-0.747516 1.18812 1.78 80 105 123 0.636208 -0.301192 -0.710298
-0.816864 1.13083 1.77997 66 90 113 0.253863 -0.619677 -0.742667
-0.792743 1.14289 1.78195 59 86 108 0.262784 -0.462561 -0.846748
-0.768622 1.16098 1.78236 63 93 115 0.240681 -0.348622 -0.905834
-0.795758 1.14591 1.78042 61 88 109 0.204074 -0.341074 -0.917618
-0.744501 1.18812 1.78274 80 105 123 0.670757 -0.189662 -0.717017
-0.792743 1.14591 1.78035 61 88 109 0.208705 -0.475968 -0.85434
-0.771637 1.164 1.78046 63 93 115 0.261396 -0.278536 -0.92417
-0.789728 1.14591 1.78159 63 89 110 0.319675 -0.474 -0.820446
-0.744501 1.19113 1.78197 77 104 125 0.673684 -0.337657 -0.657372
-0.768622 1.164 1.7811 63 93 115 0.227451 -0.343349 -0.911251
-0.813849 1.13083 1.78113 66 90 113 0.274413 -0.585308 -0.762963
-0.786713 1.14591 1.78261 63 89 110 0.239297 -0.520278 -0.819785
-0.810834 1.13083 1.78227 66 90 113 0.29974 -0.591465 -0.748548
-0.741486 1.19716 1.78077 76 97 113 0.820636 -0.376191 -0.430159
-0.765607 1.164 1.78178 64 93 115 0.385218 -0.251358 -0.887934
-0.771637 1.19415 1.78061 34 49 67 -0.077253 0.11415 -0.990455
-0.789728 1.14892 1.78001 53 82 103 0.228289 -0.46716 -0.854193
-0.738471 1.20319 1.7825 73 98 113 0.862174 0.001337 -0.506611
-0.768622 1.16701 1.77991 61 91 114 0.354307 -0.288528 -0.889504
-0.786713 1.14892 1.78065 53 82 103 0.176465 -0.550512 -0.815964
-0.741486 1.20922 1.78096 57 83 101 0.784581 0.194233 -0.588818
-0.765607 1.16701 1.78113 64 91 113 0.422405 -0.185624 -0.887197
-0.783698 1.14892 1.78128 52 82 101 0.224342 -0.574007 -0.787519
-0.741486 1.21224 1.78118 62 85 103 0.844144 0.187421 -0.502288
-0.780683 1.14892 1.78223 52 82 101 0.314526 -0.488385 -0.813974
-0.765607 1.17003 1.78077 67 95 118 0.430697 -0.283555 -0.856795
-0.780683 1.15193 1.78047 52 82 101 0.377974 -0.409604 -0.830278
-0.744501 1.21827 1.78062 51 79 98 0.549627 0.466097 -0.693299
-0.762592 1.17003 1.78252 67 95 118 0.434773 -0.493836 -0.753059
-0.777668 1.15193 1.78176 52 82 101 0.348002 -0.40106 -0.847376
-0.777668 1.15495 1.78046 52 82 101 0.350705 -0.350705 -0.868339
-0.747516 1.22128 1.78095 38 61 80 0.544186 0.493953 -0.678139
-0.774653 1.15495 1.78183 52 82 101 0.403214 -0.319791 -0.85741
-0.744501 1.22128 1.78252 38 61 80 0.415712 0.487442 -0.767844
-0.747516 1.2243 1.78253 38 61 80 0.631715 0.57444 -0.520533
-0.762592 1.17304 1.7804 66 97 122 0.372357 -0.53821 -0.756096
-0.759577 1.17304 1.78181 70 105 132 0.424929 -0.470515 -0.773338
-0.765607 1.23334 1.78027 39 54 70 0.15915 0.638117 -0.753311
-0.762592 1.23334 1.78071 39 54 70 0.211266 0.578283 -0.788007
-0.768622 1.23636 1.78164 39 54 70 0.393901 0.575195 -0.716933
-0.759577 1.17606 1.78 73 105 129 0.520893 -0.438212 -0.732558
-0.765607 1.23636 1.78274 39 54 70 0.167777 0.597043 -0.784469
-0.756562 1.17606 1.78214 74 106 133 0.513969 -0.377776 -0.770144
-0.762592 1.23636 1.78267 39 54 70 0.017799 0.551766 -0.833809
-0.759577 1.23334 1.78199 33 53 71 0.335875 0.588998 -0.73503
-0.756562 1.17907 1.78062 75 107 131 0.491147 -0.416088 -0.765275
-0.765924 1.15796 1.78582 61 91 112 0.53247 -0.278015 -0.79949
-0.765607 1.15844 1.78582 61 91 112 0.611237 -0.506838 -0.607869
-0.763899 1.16098 1.78582 64 93 115 0.675746 -0.481238 -0.55837
-0.801012 1.13384 1.78582 48 77 100 0.443159 -0.623768 -0.643835
-0.798774 1.13539 1.78582 48 77 100 0.372733 -0.619033 -0.69128
-0.762592 1.16231 1.78582 68 95 117 0.680626 -0.47995 -0.553531
-0.761803 1.164 1.78582 73 99 121 0.800161 -0.223552 -0.556567
-0.796016 1.13686 1.78582 64 88 107 0.32594 -0.614584 -0.718366
-0.761533 1.16701 1.78582 75 103 127 0.747423 -0.369641 -0.552018
-0.795758 1.13703 1.78582 65 93 114 0.387713 -0.602193 -0.697884
-0.759577 1.16921 1.78582 75 103 127 0.506322 -0.640892 -0.576971
-0.792743 1.13897 1.78582 64 92 113 0.333227 -0.684334 -0.648573
-0.757979 1.17003 1.78582 75 103 127 0.361806 -0.695781 -0.620472
-0.79031 1.13987 1.78582 63 89 110 0.230603 -0.651021 -0.723183
-0.789728 1.1402 1.78582 63 89 110 0.267257 -0.529825 -0.804897
-0.786713 1.14176 1.78582 63 89 110 0.253241 -0.529787 -0.809441
-0.756562 1.17063 1.78582 67 105 132 0.463834 -0.61119 -0.641331
-0.784087 1.14289 1.78582 58 86 107 0.310817 -0.597478 -0.739197
-0.754177 1.17304 1.78582 42 83 117 0.598371 -0.46093 -0.655359
-0.783698 1.14308 1.78582 58 86 107 0.268498 -0.640264 -0.719702
-0.753547 1.17455 1.78582 54 92 123 0.601806 -0.271527 -0.751067
-0.780683 1.1444 1.78582 58 86 107 0.305146 -0.686174 -0.660342
-0.752645 1.17606 1.78582 54 92 123 0.533109 -0.519655 -0.667648
-0.816864 1.12457 1.78582 71 89 110 0.179476 -0.905993 -0.38336
-0.774653 1.14698 1.78582 64 89 108 0.390864 -0.58877 -0.707513
-0.772412 1.14892 1.78582 64 89 108 0.433393 -0.55627 -0.709037
-0.816655 1.1248 1.78582 65 87 110 0.370268 -0.900059 -0.229771
-0.748713 1.17907 1.78582 59 82 100 0.443184 -0.627147 -0.640526
-0.810834 1.124 1.78582 63 89 113 0.000978 -0.999999 0.000978
-0.771637 1.14979 1.78582 64 89 108 0.515254 -0.407296 -0.754071
-0.747516 1.17996 1.78582 59 82 100 0.449221 -0.606198 -0.656297
-0.81139 1.1248 1.78582 63 89 113 -0.57448 -0.477337 -0.664923
-0.77011 1.15193 1.78582 64 89 108 0.515261 -0.385226 -0.765576
-0.813849 1.12559 1.78582 63 89 113 0.139846 -0.831715 -0.537302
-0.768622 1.15362 1.78582 64 89 108 0.46104 -0.428458 -0.777088
-0.744677 1.18209 1.78582 59 82 100 0.47995 -0.553531 -0.680626
-0.767393 1.15495 1.78582 64 89 108 0.480357 -0.298854 -0.824587
-0.809594 1.1248 1.78582 62 87 111 0.99462 -0.061259 -0.083535
-0.810479 1.12781 1.78582 62 87 111 0.849715 -0.495543 -0.180062
-0.750532 1.22884 1.78582 37 63 84 0.552146 0.71464 -0.429447
-0.807819 1.13002 1.78582 56 86 112 0.501538 -0.785366 -0.362849
-0.752319 1.23033 1.78582 37 63 84 0.610027 0.623471 -0.48903
-0.805591 1.13083 1.78582 56 86 112 0.307 -0.784202 -0.539238
-0.744501 1.18225 1.78582 80 105 123 0.544365 -0.527511 -0.652226
-0.804804 1.13113 1.78582 55 84 110 0.431219 -0.657651 -0.617693
-0.741722 1.1851 1.78582 77 104 125 0.546776 -0.264771 -0.794313
-0.801789 1.13335 1.78582 46 73 98 0.453859 -0.65148 -0.607936
-0.741666 1.18812 1.78582 77 104 125 0.692288 -0.092208 -0.715706
-0.741717 1.19113 1.78582 77 101 124 0.792042 -0.094464 -0.603114
-0.741486 1.19257 1.78582 77 101 124 0.704761 -0.41954 -0.5721
-0.740297 1.19415 1.78582 77 101 124 0.716304 -0.415224 -0.560801
-0.738489 1.19716 1.78582 77 97 111 0.673373 -0.402039 -0.62043
-0.738471 1.1972 1.78582 76 97 115 0.724296 -0.349941 -0.594085
-0.736947 1.20018 1.78582 72 92 108 0.76771 -0.236098 -0.595718
-0.736452 1.20319 1.78582 72 92 108 0.901092 0.069735 -0.427984
-0.737443 1.20621 1.78582 68 90 106 0.85791 0.357076 -0.369442
-0.738471 1.20814 1.78582 57 83 101 0.855989 0.379236 -0.351373
-0.738937 1.20922 1.78582 57 83 101 0.935642 0.12051 -0.33174
-0.738997 1.21224 1.78582 57 83 101 0.865505 0.083032 -0.493971
-0.739281 1.21525 1.78582 43 72 91 0.801669 0.138321 -0.581545
-0.739947 1.21827 1.78582 39 64 81 0.812716 0.31404 -0.490786
-0.741486 1.22103 1.78582 38 58 76 0.716304 0.415224 -0.560801
-0.741676 1.22128 1.78582 38 58 76 0.644811 0.533695 -0.547164
-0.74416 1.2243 1.78582 38 58 76 0.629964 0.532007 -0.565786
-0.765607 1.24152 1.78582 46 48 59 0.107829 0.51614 -0.84969
-0.768306 1.24239 1.78582 46 48 59 0.170286 0.496051 -0.851431
-0.762592 1.24152 1.78582 46 48 59 0.170813 0.506498 -0.845153
-0.756562 1.23457 1.78582 33 53 71 0.613664 0.579853 -0.535899
-0.758186 1.23636 1.78582 33 53 71 0.652425 0.46458 -0.598755
-0.753547 1.23144 1.78582 33 51 68 0.591312 0.635113 -0.496972
-0.755408 1.23334 1.78582 33 51 68 0.609142 0.585518 -0.534897
-0.759462 1.23937 1.78582 41 49 61 0.717169 0.296815 -0.630531
-0.759577 1.23959 1.78582 47 47 58 0.525389 0.485359 -0.698851
-0.768622 1.24254 1.78582 37 53 69 0.669468 0.515104 -0.535239
-0.777668 1.14564 1.78582 56 89 113 0.303667 -0.740692 -0.599301
-0.776934 1.14591 1.78582 56 89 113 0.304879 -0.640407 -0.704931
-0.747516 1.22677 1.78582 34 55 74 0.524375 0.688556 -0.50092
-0.748334 1.22731 1.78582 34 55 74 0.508607 0.742336 -0.436184
-0.744501 1.22462 1.78582 34 55 74 0.517412 0.691558 -0.504017
-0.804804 1.13384 1.78304 52 82 108 0.432299 -0.642607 -0.632592
-0.801789 1.13384 1.78524 58 93 120 0.460315 -0.634398 -0.621007
-0.798774 1.13686 1.7848 48 77 100 0.406839 -0.545197 -0.732969
-0.795758 1.13987 1.78378 65 93 114 0.29207 -0.595313 -0.74853
-0.768622 1.15796 1.78386 63 93 115 0.459977 -0.420968 -0.781798
-0.765607 1.16098 1.7832 61 91 112 0.6991 -0.49888 -0.512228
-0.792743 1.13987 1.7851 64 92 113 0.332784 -0.624984 -0.706151
-0.762592 1.164 1.78448 68 95 117 0.787109 -0.207945 -0.580705
-0.789728 1.14289 1.78401 63 89 110 0.313101 -0.582849 -0.749836
-0.762592 1.16701 1.7841 72 98 121 0.759718 -0.299089 -0.577386
-0.786713 1.14289 1.78496 63 89 110 0.252779 -0.588771 -0.767757
-0.759577 1.17003 1.78475 75 103 127 0.55903 -0.569163 -0.602942
-0.783698 1.14591 1.78352 58 86 107 0.236343 -0.602597 -0.762246
-0.780683 1.14591 1.78444 58 86 107 0.257096 -0.610405 -0.749205
-0.756562 1.17304 1.78324 67 105 132 0.575853 -0.552211 -0.602873
-0.774653 1.15193 1.78306 52 82 101 0.423064 -0.394328 -0.815796
-0.750532 1.22731 1.7832 37 63 84 0.567185 0.693596 -0.444101
-0.753547 1.17606 1.78508 54 92 123 0.559298 -0.542401 -0.626887
-0.774653 1.14892 1.78455 64 89 108 0.35241 -0.47679 -0.805281
-0.753547 1.23033 1.78376 37 63 84 0.606882 0.689563 -0.395217
-0.771637 1.15193 1.78467 64 89 108 0.470333 -0.377229 -0.7978
-0.771637 1.15495 1.78338 64 89 108 0.478826 -0.363523 -0.79911
-0.747516 1.18209 1.7837 59 82 100 0.523617 -0.560658 -0.641473
-0.768622 1.15495 1.78509 64 89 108 0.488485 -0.332552 -0.806717
-0.744501 1.1851 1.78401 80 105 123 0.593356 -0.34626 -0.726658
-0.816864 1.1248 1.78545 71 89 110 0.146494 -0.717366 -0.681121
-0.810834 1.1248 1.78454 63 89 113 0.001122 -0.16276 -0.986665
-0.741486 1.19415 1.78335 77 101 124 0.815508 -0.470302 -0.337288
-0.813849 1.12781 1.78312 63 89 113 0.318904 -0.671803 -0.668566
-0.810834 1.12781 1.7852 59 90 116 0.398906 -0.549932 -0.73379
-0.738471 1.20018 1.78387 76 97 115 0.774611 -0.291076 -0.561474
-0.807819 1.13083 1.78438 56 86 112 0.491753 -0.65623 -0.572313
-0.738471 1.20621 1.78391 69 90 106 0.851085 0.343857 -0.396758
-0.741486 1.21525 1.78282 42 68 86 0.785255 0.187546 -0.590085
-0.741486 1.21827 1.78384 42 68 86 0.731916 0.342426 -0.589103
-0.744501 1.2243 1.78547 38 61 80 0.573484 0.607318 -0.5498
-0.768622 1.23937 1.78368 46 48 59 0.565486 0.42287 -0.708101
-0.765607 1.23937 1.78455 46 48 59 0.132741 0.509085 -0.850419
-0.762592 1.23937 1.78463 46 48 59 0.179677 0.488544 -0.853839
-0.768622 1.24239 1.78572 46 48 59 0.796766 0.258284 -0.546309
-0.756562 1.23334 1.78432 33 53 71 0.596711 0.643776 -0.47905
-0.759577 1.23636 1.78458 33 53 71 0.475393 0.485332 -0.733795
-0.759577 1.23937 1.78574 35 50 64 0.32072 0.38824 -0.863949
-0.773319 1.24842 1.78582 37 53 69 0.827733 0.274876 -0.489185
-0.773309 1.25445 1.78582 37 53 69 0.7621 -0.041004 -0.646159
-0.798774 1.13231 1.78884 55 79 99 0.376806 -0.643368 -0.666404
-0.796277 1.13384 1.78884 55 79 99 0.377522 -0.634699 -0.674265
-0.762985 1.15796 1.78884 65 95 117 0.730687 -0.186133 -0.656849
-0.762592 1.15871 1.78884 65 95 117 0.617561 -0.405636 -0.673853
-0.761287 1.16098 1.78884 76 101 123 0.695473 -0.379797 -0.609977
-0.816864 1.12366 1.78884 82 89 106 0.24795 -0.790634 -0.559838
-0.759707 1.164 1.78884 76 101 122 0.697062 -0.35098 -0.625234
-0.814451 1.1248 1.78884 72 86 105 0.362226 -0.706422 -0.60808
-0.759577 1.16443 1.78884 78 104 125 0.571331 -0.167329 -0.803481
-0.813849 1.12515 1.78884 72 86 105 0.119044 -0.980579 -0.155862
-0.810834 1.12562 1.78884 72 86 105 0.559357 -0.70874 -0.429892
-0.753547 1.1693 1.78884 58 109 143 0.228634 -0.523251 -0.820936
-0.808837 1.12781 1.78884 64 84 104 0.614786 -0.510356 -0.601311
-0.807819 1.12879 1.78884 57 88 113 0.382713 -0.808661 -0.446765
-0.750532 1.17059 1.78884 69 100 125 0.418896 -0.415686 -0.807298
-0.804804 1.12948 1.78884 57 88 112 0.238009 -0.827658 -0.508265
-0.74157 1.18209 1.78884 82 106 126 0.590321 -0.499503 -0.634049
-0.741486 1.1822 1.78884 82 106 126 0.721653 -0.446264 -0.529212
-0.801789 1.13052 1.78884 44 69 93 0.30677 -0.793152 -0.526119
-0.740232 1.1851 1.78884 82 106 126 0.857575 -0.208762 -0.470089
-0.801208 1.13083 1.78884 49 77 101 0.380443 -0.69995 -0.604427
-0.739733 1.18812 1.78884 82 106 126 0.832735 -0.146431 -0.533956
-0.738805 1.19113 1.78884 81 103 122 0.758603 -0.233055 -0.608446
-0.738471 1.19179 1.78884 84 103 119 0.629029 -0.474707 -0.61561
-0.737052 1.19415 1.78884 81 98 115 0.76089 -0.410717 -0.502351
-0.735476 1.19716 1.78884 84 96 112 0.727357 -0.38256 -0.569736
-0.735456 1.19721 1.78884 83 96 112 0.770367 -0.205328 -0.603634
-0.735034 1.20018 1.78884 83 96 112 0.817359 -0.034811 -0.575076
-0.750532 1.23105 1.78884 43 47 57 0.613798 0.427496 -0.663701
-0.735456 1.2025 1.78884 74 93 109 0.848383 0.123269 -0.514831
-0.752246 1.23334 1.78884 43 47 57 0.599913 0.394984 -0.695767
-0.735643 1.20319 1.78884 74 93 109 0.904434 0.219919 -0.36556
-0.753198 1.23636 1.78884 43 47 57 0.600565 0.221914 -0.768164
-0.736371 1.20621 1.78884 73 92 107 0.850808 0.291838 -0.436985
-0.756562 1.23817 1.78884 54 44 51 0.521474 0.393966 -0.756872
-0.75699 1.23937 1.78884 54 44 51 0.697859 0.348112 -0.625948
-0.738471 1.21785 1.78884 55 78 96 0.809922 0.384992 -0.442502
-0.758464 1.24239 1.78884 58 43 49 0.716106 0.450266 -0.533341
-0.738749 1.21827 1.78884 55 78 96 0.839269 0.346689 -0.41885
-0.753547 1.23677 1.78884 35 49 62 0.40825 0.453432 -0.792295
-0.73754 1.20922 1.78884 59 86 106 0.778112 -0.02088 -0.627779
-0.736582 1.21224 1.78884 59 86 106 0.807053 -0.032059 -0.589608
-0.736922 1.21525 1.78884 43 72 92 0.786402 0.320622 -0.52799
-0.73993 1.22128 1.78884 34 60 79 0.797052 0.343419 -0.49676
-0.795758 1.13414 1.78884 57 81 102 0.464727 -0.64592 -0.605654
-0.74148 1.2243 1.78884 34 60 79 0.732797 0.367214 -0.572855
-0.792743 1.13645 1.78884 68 89 109 0.409307 -0.671131 -0.618103
-0.744501 1.22684 1.78884 34 55 74 0.542776 0.670488 -0.505807
-0.791286 1.13686 1.78884 64 87 106 0.288861 -0.742101 -0.604852
-0.745294 1.22731 1.78884 34 55 74 0.458975 0.730715 -0.505369
-0.789728 1.13715 1.78884 64 87 106 0.125876 -0.783393 -0.608647
-0.747516 1.22859 1.78884 34 55 74 0.472724 0.721526 -0.505898
-0.749863 1.23033 1.78884 34 55 74 0.530906 0.652256 -0.541018
-0.786713 1.13752 1.78884 60 86 106 0.335233 -0.733626 -0.591111
-0.741486 1.22431 1.78884 34 55 74 0.546934 0.66137 -0.513277
-0.783698 1.13987 1.78884 60 83 102 0.549725 -0.705841 -0.446756
-0.783691 1.13987 1.78884 60 83 102 0.38609 -0.714677 -0.583242
-0.780683 1.1416 1.78884 60 83 102 0.361504 -0.705014 -0.61014
-0.778321 1.14289 1.78884 56 89 113 0.354972 -0.708308 -0.610159
-0.777668 1.1432 1.78884 56 89 113 0.343933 -0.715577 -0.607996
-0.774653 1.14474 1.78884 56 89 113 0.258793 -0.703346 -0.662066
-0.744501 1.18209 1.78596 82 103 122 0.596145 -0.518461 -0.613033
-0.741486 1.1851 1.78607 82 106 126 0.776078 -0.359803 -0.517923
-0.798774 1.13384 1.78726 55 79 99 0.414097 -0.636945 -0.650249
-0.765607 1.15796 1.78608 65 95 117 0.701629 -0.202899 -0.683043
-0.741486 1.18812 1.78603 82 106 126 0.863441 -0.04269 -0.502641
-0.762592 1.16098 1.78714 65 95 117 0.661982 -0.480984 -0.574835
-0.741486 1.19113 1.78611 82 104 124 0.763418 -0.107379 -0.636917
-0.795758 1.13686 1.78592 57 81 102 0.453036 -0.643612 -0.616865
-0.759577 1.16701 1.78809 78 104 125 0.706549 -0.304186 -0.638952
-0.738471 1.19415 1.78693 84 103 119 0.618705 -0.391021 -0.6814
-0.792743 1.13686 1.78823 68 89 109 0.427989 -0.677788 -0.597853
-0.753547 1.17003 1.78829 58 109 143 0.412515 -0.534133 -0.737925
-0.789728 1.13987 1.786 64 87 106 0.165813 -0.667816 -0.725622
-0.738471 1.19716 1.78585 85 100 116 0.708843 -0.300575 -0.638119
-0.753547 1.17304 1.78638 78 108 130 0.400738 -0.42309 -0.812652
-0.750532 1.17304 1.78784 69 100 125 0.432202 -0.290698 -0.853637
-0.735456 1.20018 1.78818 83 96 112 0.879298 -0.053499 -0.473257
-0.786713 1.13987 1.78693 60 86 106 0.334994 -0.57127 -0.749286
-0.738471 1.20922 1.78721 61 86 104 0.882899 0.227031 -0.41103
-0.738471 1.21224 1.78639 61 86 104 0.79472 -0.091531 -0.600035
-0.783698 1.13987 1.78883 60 83 102 0.419776 -0.598968 -0.681928
-0.738471 1.21525 1.78675 55 78 96 0.8016 0.200018 -0.56341
-0.783698 1.14289 1.78598 60 83 102 0.336945 -0.662495 -0.669006
-0.780683 1.14289 1.78736 60 83 102 0.337528 -0.68647 -0.644075
-0.774653 1.14591 1.78706 56 89 113 0.369147 -0.690715 -0.621807
-0.741486 1.22128 1.78612 34 60 79 0.785614 0.426013 -0.448691
-0.741486 1.2243 1.78883 34 60 79 0.641546 0.527044 -0.557354
-0.747516 1.22731 1.78672 34 55 74 0.488623 0.733763 -0.472059
-0.771637 1.14892 1.78628 58 88 112 0.504305 -0.521059 -0.688603
-0.768622 1.15193 1.78683 53 86 110 0.509115 -0.439915 -0.739782
-0.765607 1.15495 1.78685 63 93 117 0.590344 -0.331563 -0.735908
-0.756562 1.23636 1.78771 43 47 57 0.484153 0.474239 -0.735318
-0.810834 1.1248 1.78737 72 86 105 0.367483 -0.873724 0.318688
-0.753547 1.23334 1.78774 43 47 57 0.526602 0.463476 -0.712657
-0.753547 1.23636 1.78863 43 47 57 0.283314 0.367259 -0.88592
-0.804804 1.13083 1.78625 57 88 112 0.313189 -0.823106 -0.473719
-0.759577 1.24239 1.78778 52 44 51 0.534247 0.490703 -0.688324
-0.801789 1.13083 1.78849 44 69 93 0.449141 -0.659519 -0.60275
-0.798774 1.12926 1.79185 48 71 92 0.205238 -0.615715 -0.760771
-0.795758 1.13034 1.79185 48 71 92 0.229199 -0.597165 -0.768675
-0.794435 1.13083 1.79185 55 79 99 0.208762 -0.470089 -0.857575
-0.792743 1.13279 1.79185 59 82 100 0.446055 -0.223778 -0.866578
-0.792273 1.13384 1.79185 58 77 96 0.461013 -0.601832 -0.652124
-0.789728 1.13558 1.79185 67 88 106 0.359803 -0.776078 -0.517923
-0.786713 1.13647 1.79185 64 87 106 0.305196 -0.88552 -0.350299
-0.786007 1.13686 1.79185 60 83 102 0.411475 -0.843289 -0.345764
-0.783698 1.13795 1.79185 60 83 102 0.380707 -0.801573 -0.461025
-0.780683 1.13939 1.79185 60 83 102 0.314862 -0.72822 -0.608734
-0.779511 1.13987 1.79185 56 89 113 0.29713 -0.727567 -0.618352
-0.739439 1.18209 1.79185 82 106 126 0.769261 -0.291459 -0.568585
-0.738644 1.1851 1.79185 82 106 126 0.846769 -0.212824 -0.487533
-0.738471 1.18598 1.79185 82 106 126 0.846281 -0.151595 -0.510712
-0.748649 1.17003 1.79185 70 104 131 0.684049 -0.359249 -0.634837
-0.738122 1.18812 1.79185 77 94 111 0.867154 -0.071216 -0.492923
-0.810834 1.11963 1.79185 105 79 87 0.036206 -0.285899 -0.957575
-0.737516 1.19113 1.79185 81 98 115 0.834614 -0.419665 -0.356793
-0.747516 1.1721 1.79185 81 105 126 0.542146 -0.388183 -0.745246
-0.735456 1.19408 1.79185 81 98 115 0.775522 -0.545264 -0.318204
-0.735398 1.19415 1.79185 81 98 115 0.684767 -0.550828 -0.477161
-0.807819 1.11976 1.79185 94 80 91 0.320624 -0.253888 -0.912546
-0.7333 1.19716 1.79185 83 96 112 0.789737 -0.31749 -0.524896
-0.732898 1.20018 1.79185 83 96 112 0.850028 0.004041 -0.526721
-0.733137 1.20319 1.79185 74 93 109 0.795875 0.085221 -0.599434
-0.733418 1.20621 1.79185 75 94 109 0.698444 0.156051 -0.698444
-0.756562 1.2422 1.79185 54 44 51 0.414075 0.653539 -0.633584
-0.806653 1.12178 1.79185 100 77 86 0.412587 -0.281655 -0.866281
-0.756884 1.24239 1.79185 54 44 51 0.738409 0.37821 -0.558309
-0.734483 1.20922 1.79185 61 86 107 0.692076 0.130045 -0.710013
-0.734803 1.21224 1.79185 52 83 104 0.814513 0.179827 -0.551572
-0.750532 1.23792 1.79185 37 46 59 0.650488 0.456512 -0.607011
-0.804804 1.12432 1.79185 63 81 99 0.363868 -0.318194 -0.875415
-0.735146 1.21525 1.79185 41 75 97 0.901416 0.267032 -0.340797
-0.75165 1.23937 1.79185 37 46 59 0.616017 0.565386 -0.548509
-0.735456 1.21595 1.79185 44 73 93 0.849166 0.344341 -0.400432
-0.736692 1.21827 1.79185 44 73 93 0.752939 0.359394 -0.551288
-0.803766 1.1248 1.79185 58 84 106 0.211036 -0.260691 -0.942074
-0.753547 1.24142 1.79185 37 48 61 0.387616 0.671318 -0.631732
-0.738471 1.22405 1.79185 34 60 79 0.75094 0.19583 -0.630666
-0.803239 1.12781 1.79185 58 84 106 0.290286 -0.497409 -0.817508
-0.738515 1.2243 1.79185 34 60 79 0.468827 0.535563 -0.702406
-0.744501 1.22911 1.79185 34 55 74 0.468561 0.705342 -0.531925
-0.758263 1.2454 1.79185 54 43 50 0.666826 0.326112 -0.670071
-0.801789 1.12843 1.79185 55 85 109 0.269285 -0.709064 -0.651701
-0.746538 1.23033 1.79185 34 55 74 0.478315 0.622649 -0.619292
-0.741486 1.22675 1.79185 34 55 74 0.441087 0.580903 -0.684101
-0.742282 1.22731 1.79185 34 55 74 0.529076 0.663444 -0.529076
-0.738072 1.22128 1.79185 40 58 74 0.730616 0.219652 -0.646494
-0.747516 1.23124 1.79185 33 47 67 0.634842 0.39947 -0.661362
-0.748576 1.23334 1.79185 33 47 67 0.704848 0.282898 -0.650506
-0.74956 1.23636 1.79185 35 47 62 0.743397 0.341736 -0.574959
-0.798774 1.13083 1.79032 48 71 92 0.293691 -0.694908 -0.656391
-0.795758 1.13083 1.79156 48 71 92 0.303339 -0.608282 -0.73347
-0.795758 1.13384 1.78911 55 81 101 0.448168 -0.481001 -0.753514
-0.762592 1.15796 1.78941 61 94 118 0.619126 -0.36622 -0.694669
-0.792743 1.13384 1.79149 59 82 100 0.449843 -0.59366 -0.66724
-0.741486 1.18209 1.78894 82 106 126 0.750157 -0.393873 -0.531157
-0.789728 1.13686 1.78934 67 88 106 0.178062 -0.872653 -0.454721
-0.786713 1.13686 1.79064 64 87 106 0.272688 -0.892569 -0.359114
-0.738471 1.18812 1.79125 82 106 126 0.876686 -0.206192 -0.434634
-0.738471 1.19113 1.78952 82 103 122 0.858739 -0.348137 -0.375988
-0.759577 1.16098 1.79004 72 99 121 0.349169 -0.38331 -0.855076
-0.735456 1.19415 1.79174 81 98 115 0.771901 -0.47489 -0.422669
-0.759577 1.164 1.78892 76 100 122 0.224785 -0.31928 -0.920615
-0.780683 1.13987 1.79111 60 83 102 0.383355 -0.758554 -0.52691
-0.756562 1.164 1.78961 81 104 125 0.180333 -0.204026 -0.962213
-0.735456 1.19716 1.78886 83 96 112 0.711632 -0.484976 -0.508309
-0.777668 1.14289 1.78925 56 89 113 0.275801 -0.706243 -0.652039
-0.735456 1.20319 1.78914 74 93 109 0.725515 0.152979 -0.670988
-0.735456 1.20621 1.79004 74 93 109 0.70512 0.199913 -0.680324
-0.738471 1.21827 1.78927 55 78 96 0.758861 0.39983 -0.514067
-0.735456 1.20922 1.7909 66 89 109 0.729145 0.080046 -0.679662
-0.750532 1.17003 1.78939 58 102 134 0.660152 -0.442887 -0.606672
-0.735456 1.21224 1.79076 59 86 106 0.838921 0.034552 -0.543156
-0.735456 1.21525 1.79121 50 78 97 0.854702 0.126246 -0.503534
-0.747516 1.17304 1.79087 81 105 126 0.65072 -0.485938 -0.583462
-0.813849 1.12178 1.79094 98 84 95 0.115647 -0.469726 -0.875205
-0.810834 1.12178 1.7913 105 79 87 0.089137 -0.275163 -0.957256
-0.750532 1.23334 1.78994 43 47 57 0.626285 0.293121 -0.72239
-0.738471 1.22128 1.79122 34 60 79 0.81168 0.27056 -0.517661
-0.750532 1.23636 1.79091 43 47 57 0.582341 0.321013 -0.74688
-0.756562 1.23937 1.78915 54 44 51 0.525883 0.519162 -0.673735
-0.744501 1.22731 1.78944 34 55 74 0.475691 0.702687 -0.529102
-0.807819 1.12178 1.79147 94 80 91 0.129197 -0.213622 -0.968336
-0.747516 1.23033 1.79103 34 55 74 0.527643 0.625417 -0.574844
-0.753547 1.23937 1.79032 37 50 64 0.389284 0.509816 -0.767167
-0.813849 1.1248 1.78915 73 86 105 0.307973 -0.503812 -0.807047
-0.810834 1.1248 1.79021 76 85 102 0.182116 -0.528287 -0.829305
-0.807819 1.1248 1.79074 66 86 107 0.302851 -0.305805 -0.902643
-0.804804 1.1248 1.79173 63 81 99 0.288161 -0.138049 -0.947579
-0.807819 1.12781 1.78988 64 84 104 0.475251 -0.37859 -0.794233
-0.804804 1.12781 1.79125 64 84 104 0.318967 -0.466666 -0.824914
-0.80123 1.12178 1.79487 62 83 104 0.401713 -0.379658 -0.833358
-0.798774 1.12428 1.79487 62 83 104 0.380473 -0.337342 -0.86107
-0.7984 1.1248 1.79487 57 78 99 0.369023 -0.49794 -0.784779
-0.795758 1.12621 1.79487 57 78 99 0.051977 -0.563316 -0.824605
-0.735935 1.2243 1.79487 34 47 65 0.818525 0.262487 -0.510996
-0.737104 1.22731 1.79487 34 47 65 0.833085 0.348038 -0.429929
-0.738471 1.22887 1.79487 34 46 62 0.406466 0.615506 -0.675232
-0.736041 1.18812 1.79487 91 106 120 0.828101 -0.05202 -0.55816
-0.750532 1.24083 1.79487 43 47 57 0.659519 0.60275 -0.449141
-0.787672 1.13384 1.79487 59 78 95 0.653979 -0.123645 -0.74634
-0.752318 1.24239 1.79487 43 47 57 0.646052 0.416861 -0.639409
-0.736447 1.19113 1.79487 76 94 110 0.87531 -0.139877 -0.46289
-0.735456 1.19232 1.79487 78 98 114 0.685845 -0.626635 -0.37006
-0.786713 1.13519 1.79487 67 87 104 0.40858 -0.70964 -0.573998
-0.733322 1.19415 1.79487 77 97 114 0.690943 -0.577728 -0.434545
-0.783698 1.1366 1.79487 60 80 97 0.107794 -0.654145 -0.748649
-0.732441 1.1956 1.79487 75 97 115 0.832475 -0.396492 -0.387014
-0.731864 1.19716 1.79487 76 98 118 0.908347 -0.130566 -0.397314
-0.731684 1.20018 1.79487 67 94 115 0.870342 -0.091689 -0.483837
-0.731549 1.20319 1.79487 73 96 115 0.880464 -0.028315 -0.473266
-0.744501 1.2315 1.79487 39 48 63 0.410472 0.646451 -0.643128
-0.731026 1.20621 1.79487 73 96 115 0.917409 -0.041039 -0.395823
-0.732441 1.21116 1.79487 51 81 103 0.772356 0.404877 -0.48943
-0.733097 1.21224 1.79487 51 81 103 0.867818 0.326006 -0.374983
-0.746085 1.23334 1.79487 39 48 63 0.63979 0.410463 -0.649761
-0.731273 1.20922 1.79487 55 83 104 0.850881 0.222166 -0.47607
-0.747516 1.23621 1.79487 39 48 63 0.705527 0.322758 -0.630919
-0.747587 1.23636 1.79487 39 48 63 0.748255 0.448953 -0.488421
-0.734534 1.21525 1.79487 43 68 88 0.895948 0.256197 -0.362822
-0.741486 1.23033 1.79487 42 49 63 0.282884 0.730383 -0.621705
-0.734534 1.21827 1.79487 41 64 83 0.850251 0.05445 -0.523554
-0.74148 1.23033 1.79487 42 49 63 0.286619 0.664509 -0.690128
-0.749413 1.23937 1.79487 49 49 58 0.745692 0.488898 -0.452683
-0.735233 1.22128 1.79487 31 44 57 0.836002 0.223848 -0.500992
-0.735456 1.22221 1.79487 31 44 57 0.813124 0.225953 -0.536447
-0.801789 1.12009 1.79487 75 81 96 0.340661 -0.15434 -0.927432
-0.804804 1.12178 1.79319 57 82 104 0.414135 -0.366895 -0.832994
-0.801789 1.12178 1.79467 62 83 104 0.381354 -0.435605 -0.815363
-0.801789 1.1248 1.79235 62 83 104 0.406144 -0.362237 -0.838947
-0.798774 1.1248 1.7943 62 83 104 0.435468 -0.28467 -0.854009
-0.801789 1.12781 1.79226 59 83 104 0.344706 -0.234167 -0.909034
-0.798774 1.12781 1.79287 62 83 104 0.242131 -0.51048 -0.825096
-0.795758 1.12781 1.79369 57 78 99 0.087738 -0.559512 -0.824165
-0.738471 1.2243 1.79188 34 47 65 0.734859 0.257596 -0.627396
-0.792743 1.12781 1.79332 51 72 93 0.030452 -0.414409 -0.909581
-0.792743 1.13083 1.79224 55 77 96 0.274076 -0.271206 -0.922675
-0.789728 1.13083 1.79325 54 74 93 0.385314 -0.114627 -0.915638
-0.789728 1.13384 1.79325 60 81 97 0.544425 -0.213169 -0.81127
-0.738471 1.22731 1.79319 34 47 65 0.531595 0.44548 -0.720385
-0.783698 1.13686 1.79434 60 80 97 0.283536 -0.874866 -0.392704
-0.756562 1.24239 1.79209 43 47 57 0.416522 0.38168 -0.825125
-0.750532 1.23937 1.79327 43 47 57 0.628189 0.584401 -0.513667
-0.753547 1.24239 1.79354 43 47 57 0.525528 0.606638 -0.596499
-0.756562 1.2454 1.79333 53 46 52 0.568104 0.280096 -0.773824
-0.738471 1.1851 1.79213 82 103 122 0.827527 -0.201947 -0.523848
-0.747516 1.23334 1.79322 39 48 63 0.684711 0.406185 -0.605132
-0.744501 1.23033 1.79348 39 48 63 0.474723 0.618986 -0.625695
-0.741486 1.23033 1.79487 42 49 63 0.332784 0.602258 -0.725631
-0.732441 1.19716 1.79356 75 97 115 0.901198 -0.152335 -0.405753
-0.732441 1.20018 1.79316 75 97 115 0.925073 -0.035328 -0.378142
-0.732441 1.20319 1.79308 73 95 114 0.87923 -0.009339 -0.476305
-0.732441 1.20621 1.79273 73 95 114 0.798374 0.017988 -0.601894
-0.732441 1.20922 1.7936 69 91 110 0.701995 0.230857 -0.673727
-0.735456 1.21827 1.79352 43 68 88 0.849323 0.199929 -0.488548
-0.741486 1.22731 1.79236 34 51 71 0.296968 0.637277 -0.711118
-0.735456 1.22128 1.79459 36 53 68 0.723954 0.261384 -0.638411
-0.735456 1.22482 1.79788 33 39 55 0.904169 0.213343 -0.370085
-0.735973 1.22731 1.79788 33 39 55 0.915078 0.223365 -0.335769
-0.735301 1.2243 1.79788 34 46 62 0.834721 0.432294 -0.341119
-0.736703 1.23033 1.79788 33 48 63 0.780956 0.446493 -0.436751
-0.733384 1.19113 1.79788 82 98 113 0.660511 -0.052784 -0.748959
-0.732441 1.19259 1.79788 68 86 105 0.662368 -0.406717 -0.629166
-0.741486 1.23292 1.79788 39 49 64 0.30065 0.728312 -0.615769
-0.731673 1.19415 1.79788 45 69 91 0.794871 -0.309381 -0.521981
-0.742132 1.23334 1.79788 39 49 64 0.614159 0.49974 -0.610794
-0.730553 1.19716 1.79788 54 86 108 0.867009 -0.249662 -0.431235
-0.738471 1.23166 1.79788 42 49 63 0.490567 0.789733 -0.368328
-0.729577 1.20018 1.79788 66 96 118 0.874354 -0.106628 -0.47343
-0.729824 1.20319 1.79788 76 97 116 0.909383 0.109681 -0.401239
-0.744098 1.23636 1.79788 42 49 63 0.730414 0.604648 -0.317642
-0.730228 1.20621 1.79788 70 95 115 0.937633 -0.040092 -0.345308
-0.747516 1.23891 1.79788 52 49 59 0.616031 0.599154 -0.51139
-0.747898 1.23937 1.79788 52 49 59 0.731509 0.557262 -0.392878
-0.744501 1.23676 1.79788 52 49 59 0.648389 0.712113 -0.269233
-0.729572 1.20922 1.79788 55 83 104 0.87567 0.158815 -0.456048
-0.750095 1.24239 1.79788 56 49 59 0.769261 0.291459 -0.568585
-0.731554 1.21224 1.79788 55 83 104 0.732133 0.454485 -0.50737
-0.732441 1.21366 1.79788 43 68 88 0.764156 0.371533 -0.527284
-0.73292 1.21525 1.79788 43 68 88 0.866867 0.025775 -0.497872
-0.732646 1.21827 1.79788 44 69 88 0.867357 0.156505 -0.472439
-0.798774 1.12178 1.79563 63 83 104 0.31253 -0.246279 -0.917427
-0.735456 1.2243 1.79709 33 39 55 0.903612 0.322824 -0.28155
-0.738471 1.23033 1.79614 33 48 63 0.35904 0.693488 -0.624631
-0.735456 1.19113 1.79641 90 102 115 0.699115 -0.247768 -0.670708
-0.732441 1.19415 1.79663 68 86 105 0.726707 -0.511509 -0.458537
-0.750532 1.24239 1.79724 43 47 57 0.76947 0.385548 -0.509184
-0.732441 1.21224 1.79615 59 85 106 0.80442 0.44797 -0.390168
-0.795758 1.1248 1.79601 57 78 99 0.183541 -0.39454 -0.900361
-0.744501 1.23334 1.79624 39 48 63 0.558897 0.388442 -0.73263
-0.786713 1.13384 1.79588 69 86 103 0.59473 -0.225159 -0.771751
-0.747516 1.23636 1.79497 39 48 63 0.628332 0.581165 -0.517152
-0.744501 1.23636 1.79745 39 48 63 0.566709 0.440404 -0.696337
-0.728989 1.20018 1.8009 69 96 120 0.972232 -0.057623 -0.226813
-0.729023 1.20319 1.8009 69 96 120 0.98281 0.087815 -0.162398
-0.729418 1.20621 1.8009 67 96 121 0.991743 0.014405 -0.127431
-0.729113 1.20922 1.8009 53 83 107 0.947041 -0.144144 -0.286941
-0.729085 1.21224 1.8009 59 86 107 0.922099 0.073822 -0.379846
-0.729426 1.21328 1.8009 46 75 97 0.762147 0.3193 -0.563187
-0.730443 1.21525 1.8009 46 75 97 0.750252 0.188714 -0.633648
-0.731129 1.21827 1.8009 34 51 66 0.778634 0.338746 -0.528187
-0.732439 1.22128 1.8009 31 51 68 0.813592 0.320698 -0.484996
-0.735456 1.23018 1.8009 34 42 59 0.88992 0.260864 -0.374154
-0.735543 1.23033 1.8009 34 42 59 0.613844 0.751998 -0.2402
-0.738471 1.23273 1.8009 53 45 53 0.599246 0.785477 -0.154692
-0.739544 1.23334 1.8009 53 45 53 0.488752 0.830102 -0.268426
-0.741486 1.23467 1.8009 53 45 53 0.646502 0.719214 -0.254491
-0.743432 1.23636 1.8009 53 45 53 0.642327 0.746076 -0.175458
-0.744501 1.23724 1.8009 49 46 56 0.742843 0.602262 -0.292345
-0.746163 1.23937 1.8009 49 46 56 0.744371 0.483594 -0.460487
-0.747516 1.24186 1.8009 49 46 56 0.704018 0.412472 -0.578123
-0.747711 1.24239 1.8009 49 46 56 0.793113 0.107019 -0.599599
-0.730657 1.18812 1.8009 89 104 117 0.827824 -0.130864 -0.545511
-0.730773 1.19113 1.8009 81 101 116 0.809267 -0.150527 -0.567828
-0.72977 1.19415 1.8009 77 98 113 0.845115 -0.236023 -0.47966
-0.729426 1.19666 1.8009 38 65 89 0.927329 -0.119169 -0.354768
-0.729351 1.19716 1.8009 36 63 89 0.949967 -0.076673 -0.302794
-0.729426 1.20018 1.79849 67 96 121 0.979553 -0.036718 -0.197806
-0.729426 1.20319 1.7991 67 96 121 0.962363 0.098935 -0.253118
-0.729426 1.20621 1.80084 67 96 121 0.972751 -0.01069 -0.231607
-0.729426 1.20922 1.79848 76 96 113 0.981664 -0.010382 -0.190334
-0.729426 1.21224 1.80041 59 86 107 0.742708 0.377067 -0.553358
-0.732441 1.21525 1.79868 51 78 98 0.781257 0.04679 -0.622453
-0.732441 1.21827 1.79829 51 78 98 0.842584 0.16495 -0.512683
-0.732441 1.19113 1.7987 88 105 121 0.749372 -0.139662 -0.647253
-0.741486 1.23334 1.7985 53 45 53 0.43424 0.809192 -0.395783
-0.729426 1.19716 1.80073 38 65 89 0.9355 -0.207734 -0.285808
