ply
format ascii 1.0
element vertex 719
property float x
property float y
property float z
property uchar red
property uchar green
property uchar blue
property float nx
property float ny
property float nz
end_header
-0.847016 0.577751 1.75869 95 120 131 -0.123611 -0.719328 -0.683585
-0.840715 0.612227 1.75869 90 101 103 0.824463 -0.432012 -0.365549
-0.825548 0.579061 1.75869 93 116 128 0.308115 -0.624295 -0.717859
-0.822895 0.580549 1.75869 93 116 128 0.351032 -0.492086 -0.796635
-0.839021 0.615242 1.75869 91 101 103 0.670556 -0.395711 -0.627508
-0.874152 0.612067 1.75869 61 84 102 -0.576932 -0.17414 -0.798013
-0.874242 0.612227 1.75869 61 84 102 -0.548901 -0.12149 -0.827011
-0.875149 0.615242 1.75869 61 84 102 -0.587928 0.001364 -0.808912
-0.83797 0.617632 1.75869 76 98 111 0.305517 -0.347657 -0.88645
-0.828925 0.586324 1.75869 57 88 106 0.207306 0.790835 -0.575851
-0.834955 0.617588 1.75869 76 98 111 -0.057155 -0.857319 -0.511603
-0.83194 0.616481 1.75869 95 107 114 -0.070838 -0.926236 -0.370227
-0.828925 0.61682 1.75869 95 110 115 0.06075 -0.947447 -0.314092
-0.82591 0.616993 1.75869 95 114 122 -0.068534 -0.917816 -0.391046
-0.822895 0.61692 1.75869 92 118 131 -0.135337 -0.795663 -0.590427
-0.874152 0.594096 1.75869 77 101 119 0.001358 -0.56624 -0.824239
-0.874626 0.594136 1.75869 77 101 119 -0.096853 -0.377862 -0.920782
-0.873739 0.594136 1.75869 78 101 116 -0.063737 -0.32649 -0.943049
-0.871137 0.595167 1.75869 75 101 119 -0.024518 -0.187968 -0.981869
-0.821608 0.582076 1.75869 92 117 130 0.344693 -0.201667 -0.916797
-0.820609 0.585091 1.75869 92 117 130 0.173765 0.128761 -0.976333
-0.880182 0.59931 1.75869 65 93 113 -0.135427 -0.130547 -0.982149
-0.881604 0.600166 1.75869 65 93 113 -0.362078 -0.292968 -0.884912
-0.865107 0.584596 1.75869 88 108 119 -0.410445 -0.653056 -0.636438
-0.816864 0.612083 1.75869 86 103 113 -0.300342 -0.627989 -0.717931
-0.866001 0.585091 1.75869 88 108 119 -0.477337 -0.664923 -0.57448
-0.859076 0.579625 1.75869 92 110 121 -0.225446 -0.589269 -0.775845
-0.817469 0.612227 1.75869 86 103 113 -0.329301 -0.631026 -0.702401
-0.81988 0.613614 1.75869 86 103 113 -0.539519 -0.482728 -0.68985
-0.820829 0.615242 1.75869 86 103 113 -0.500133 -0.486841 -0.716138
-0.862036 0.582076 1.75869 92 110 121 -0.416816 -0.498545 -0.760077
-0.813849 0.610508 1.75869 74 101 116 -0.210471 -0.569961 -0.794258
-0.862091 0.58214 1.75869 87 109 121 -0.454161 -0.55065 -0.700373
-0.856272 0.627303 1.75869 62 80 98 -0.248293 0.668966 -0.700596
-0.810834 0.609657 1.75869 71 98 113 0.170799 -0.394703 -0.902794
-0.868122 0.586602 1.75869 85 107 121 -0.576182 -0.569423 -0.58632
-0.869127 0.588106 1.75869 85 107 121 -0.625027 -0.158905 -0.764258
-0.869439 0.591121 1.75869 85 107 121 -0.400705 -0.030217 -0.915709
-0.856061 0.579883 1.75869 94 114 126 -0.029622 -0.695422 -0.717991
-0.853046 0.579657 1.75869 93 116 127 -0.026474 -0.608891 -0.792812
-0.808499 0.612227 1.75869 62 92 110 0.48432 -0.173289 -0.857558
-0.80893 0.615242 1.75869 62 90 106 0.497887 0.200057 -0.843851
-0.869268 0.594136 1.75869 76 100 116 -0.143644 -0.107431 -0.983781
-0.810834 0.617658 1.75869 64 91 107 0.46091 0.40269 -0.790824
-0.844001 0.577565 1.75869 92 118 131 -0.064743 -0.735189 -0.674763
-0.811447 0.618257 1.75869 64 91 107 0.638952 0.304186 -0.706549
-0.840986 0.577248 1.75869 94 118 130 -0.00972 -0.687365 -0.726247
-0.813268 0.621272 1.75869 56 84 101 0.599549 0.37944 -0.704675
-0.83797 0.57768 1.75869 97 121 131 0.070128 -0.599667 -0.797171
-0.834955 0.577584 1.75869 103 123 134 0.052437 -0.607981 -0.792218
-0.83194 0.578206 1.75869 98 123 135 0.151567 -0.604768 -0.781846
-0.82591 0.578955 1.75869 100 121 132 0.006928 -0.730254 -0.683141
-0.877167 0.597151 1.75845 77 100 116 -0.105691 -0.067052 -0.992136
-0.847016 0.579061 1.75742 96 123 133 -0.21834 -0.583788 -0.781997
-0.874152 0.594136 1.75868 77 101 119 0.001122 -0.16276 -0.986665
-0.874152 0.597151 1.75818 78 103 121 -0.043666 -0.108606 -0.993125
-0.844001 0.579061 1.75705 96 123 133 -0.047074 -0.688997 -0.723233
-0.871137 0.597151 1.75829 75 101 119 -0.106764 -0.245687 -0.963452
-0.880182 0.600166 1.75855 65 93 113 -0.073251 -0.051385 -0.995989
-0.840986 0.612227 1.75813 100 108 108 0.82486 -0.162585 -0.541454
-0.877167 0.600166 1.75836 65 93 113 -0.067764 0.003128 -0.997696
-0.840986 0.579061 1.75701 100 127 136 0.07929 -0.60981 -0.788572
-0.840986 0.615242 1.75755 96 105 107 0.628994 -0.119879 -0.768112
-0.874152 0.600166 1.75814 71 99 117 -0.19551 -0.039102 -0.979922
-0.83797 0.579061 1.75779 96 120 132 0.072742 -0.563392 -0.822981
-0.874152 0.612227 1.75862 61 84 102 -0.61813 -0.161711 -0.769262
-0.871137 0.600166 1.75765 72 101 119 -0.246672 -0.243884 -0.937909
-0.834955 0.579061 1.75763 98 120 131 0.066103 -0.53023 -0.845273
-0.871137 0.612227 1.75607 82 104 119 -0.638507 -0.14573 -0.755692
-0.840986 0.618257 1.7574 66 92 107 0.478952 -0.257186 -0.839321
-0.834955 0.582076 1.75602 98 120 131 0.04506 -0.476547 -0.877993
-0.865107 0.585091 1.75728 88 108 119 -0.38375 -0.706561 -0.594565
-0.83797 0.618257 1.75854 76 98 111 -0.065671 -0.507207 -0.859318
-0.859076 0.582076 1.75691 92 110 121 -0.235829 -0.470136 -0.850504
-0.834955 0.618257 1.75762 76 98 111 -0.29207 -0.595313 -0.74853
-0.862091 0.585091 1.75654 87 109 121 -0.259178 -0.513701 -0.817886
-0.874152 0.615242 1.75801 61 84 102 -0.554227 0.112009 -0.824795
-0.834955 0.588106 1.75707 64 93 111 0.244203 0.663287 -0.707401
-0.859076 0.585091 1.75632 90 109 121 -0.178304 -0.270858 -0.945962
-0.868122 0.588106 1.75745 85 107 121 -0.724556 -0.050019 -0.687399
-0.83194 0.579061 1.7581 100 120 132 0.094285 -0.581664 -0.807947
-0.83194 0.582076 1.75576 100 120 132 0.032133 -0.602146 -0.797739
-0.868122 0.591121 1.75783 85 107 121 -0.656888 0.126611 -0.743282
-0.828925 0.582076 1.75627 96 118 129 0.088722 -0.618143 -0.781042
-0.83797 0.621272 1.75688 75 97 111 0.083263 -0.214993 -0.97306
-0.82591 0.579061 1.75847 100 122 132 0.001367 -0.600218 -0.799835
-0.856061 0.582076 1.75646 94 114 126 -0.004119 -0.613745 -0.789493
-0.834955 0.621272 1.75581 79 100 113 -0.320161 -0.32918 -0.888334
-0.82591 0.582076 1.75634 100 122 132 0.253012 -0.313735 -0.915181
-0.822895 0.582076 1.75797 93 116 128 0.435582 0.038867 -0.89931
-0.853046 0.582076 1.75698 93 116 127 0.051938 -0.560091 -0.826801
-0.82591 0.585091 1.75727 93 117 129 0.330913 0.443832 -0.832772
-0.822895 0.585091 1.75832 75 101 118 0.281584 0.255856 -0.924796
-0.850031 0.579061 1.75852 96 119 130 -0.277493 -0.515791 -0.810529
-0.83797 0.624287 1.75712 76 97 108 0.076802 0.305906 -0.948959
-0.850031 0.582076 1.75697 96 119 130 -0.214771 -0.51941 -0.827096
-0.834955 0.624287 1.75581 70 89 101 -0.295884 0.304717 -0.905318
-0.83194 0.618257 1.75645 95 107 114 -0.175546 -0.758664 -0.627386
-0.828925 0.618257 1.75615 95 110 115 -0.004019 -0.861479 -0.507777
-0.868122 0.594136 1.75844 76 100 116 -0.547233 0.048985 -0.835545
-0.82591 0.618257 1.75567 95 114 122 0.006509 -0.907291 -0.420452
-0.865107 0.594136 1.75614 74 99 116 -0.538341 0.087106 -0.838213
-0.822895 0.618257 1.75639 92 118 131 0.065496 -0.868174 -0.491919
-0.868122 0.597151 1.75792 73 98 115 -0.316207 -0.192535 -0.928947
-0.865107 0.597151 1.75665 71 98 114 -0.41366 -0.153155 -0.897457
-0.82591 0.624287 1.7561 79 99 112 0.171223 0.291764 -0.94104
-0.868122 0.600166 1.75665 66 97 116 -0.274508 -0.379511 -0.883525
-0.822895 0.624287 1.7564 72 92 106 0.216638 0.446723 -0.868047
-0.816864 0.612227 1.75857 86 103 113 -0.314123 -0.607304 -0.729732
-0.81988 0.615242 1.7581 86 103 113 -0.502889 -0.370295 -0.781015
-0.856061 0.627303 1.75862 62 80 98 -0.267464 0.523978 -0.808647
-0.816864 0.615242 1.75612 85 103 113 -0.302648 -0.439228 -0.845862
-0.853046 0.627303 1.75761 77 85 101 -0.181562 0.61487 -0.767444
-0.813849 0.612227 1.75718 74 101 116 0.00393 -0.441437 -0.897283
-0.810834 0.612227 1.75775 71 98 113 0.249455 -0.241093 -0.937895
-0.813849 0.615242 1.75624 79 103 117 0.466172 -0.118325 -0.876746
-0.810834 0.615242 1.75747 74 101 116 0.387209 0.076902 -0.918779
-0.81988 0.618257 1.75648 93 115 124 -0.296319 -0.540346 -0.787542
-0.813849 0.621272 1.75807 60 87 104 0.630771 0.49957 -0.593766
-0.81988 0.624287 1.75704 62 84 98 0.231894 0.589851 -0.773499
-0.816864 0.624287 1.75846 57 80 95 0.286899 0.639513 -0.713241
-0.883197 0.597698 1.7617 76 96 111 -0.653547 -0.424057 -0.626939
-0.884302 0.600166 1.7617 76 96 111 -0.801509 -0.213838 -0.558441
-0.88474 0.603182 1.7617 76 96 111 -0.783676 0.004132 -0.621156
-0.880182 0.593352 1.7617 78 99 115 -0.481617 -0.474997 -0.736494
-0.880938 0.594136 1.7617 78 99 115 -0.586448 -0.398124 -0.70539
-0.877853 0.591121 1.7617 79 99 114 -0.434399 -0.490133 -0.75569
-0.882882 0.597151 1.7617 78 99 115 -0.633999 -0.40225 -0.660485
-0.806743 0.597151 1.7617 63 91 109 0.02006 -0.064403 -0.997722
-0.865107 0.58081 1.7617 89 110 121 -0.512257 -0.404241 -0.757748
-0.80592 0.600166 1.7617 63 91 109 0.325857 0.050231 -0.944084
-0.865973 0.582076 1.7617 89 110 121 -0.487748 -0.544736 -0.682177
-0.807055 0.603182 1.7617 62 93 114 0.422152 0.0526 -0.904998
-0.871137 0.58474 1.7617 89 110 121 -0.209453 -0.653183 -0.727655
-0.868122 0.583866 1.7617 89 110 121 -0.341011 -0.634704 -0.693443
-0.863721 0.579061 1.7617 90 109 121 -0.463367 -0.5905 -0.660758
-0.847016 0.575365 1.7617 92 118 131 -0.092366 -0.681749 -0.725732
-0.844001 0.574565 1.7617 92 118 131 -0.095416 -0.670845 -0.735434
-0.881581 0.612227 1.7617 57 87 109 -0.393844 0.276143 -0.876717
-0.817854 0.579061 1.7617 98 122 135 0.28806 -0.51473 -0.807512
-0.880182 0.614549 1.7617 65 91 110 -0.400653 0.1808 -0.898214
-0.840986 0.612023 1.7617 96 105 107 0.785247 -0.619057 -0.012464
-0.816864 0.579586 1.7617 98 122 135 0.143254 -0.686111 -0.713253
-0.879673 0.615242 1.7617 69 92 110 -0.470766 0.359059 -0.805888
-0.840701 0.612227 1.7617 90 101 103 0.697612 -0.700638 -0.149813
-0.813849 0.579958 1.7617 92 119 133 0.261156 -0.609364 -0.748647
-0.83797 0.614852 1.7617 90 101 103 0.680916 -0.705621 -0.196092
-0.877352 0.618257 1.7617 52 79 100 -0.503023 0.398837 -0.766744
-0.810926 0.582076 1.7617 92 119 133 0.401396 -0.48265 -0.778415
-0.837573 0.615242 1.7617 92 102 104 0.385308 -0.872654 -0.300022
-0.840986 0.574406 1.7617 90 118 132 -0.052983 -0.720288 -0.691648
-0.877167 0.618475 1.7617 52 79 100 -0.517964 0.571954 -0.636067
-0.83797 0.574121 1.7617 97 119 131 -0.073954 -0.680088 -0.729391
-0.822895 0.61444 1.7617 88 101 105 -0.530616 -0.457428 -0.713587
-0.834955 0.573476 1.7617 97 119 131 0.038125 -0.634007 -0.772387
-0.810834 0.582153 1.7617 91 118 133 0.504147 -0.457865 -0.732253
-0.83194 0.574247 1.7617 95 117 128 0.195644 -0.642391 -0.740984
-0.810834 0.591109 1.7617 76 103 119 0.001353 0.550634 -0.834745
-0.823641 0.615242 1.7617 88 101 105 -0.422619 -0.697737 -0.578409
-0.828925 0.575364 1.7617 98 122 133 0.19918 -0.751942 -0.628419
-0.834955 0.616378 1.7617 76 98 111 0.170158 -0.921105 -0.35016
-0.862091 0.578102 1.7617 88 102 112 -0.317982 -0.737654 -0.595612
-0.810859 0.591121 1.7617 76 103 119 0.415224 0.36786 -0.832027
-0.859076 0.576883 1.7617 94 111 122 -0.206286 -0.705716 -0.677798
-0.807995 0.585091 1.7617 83 112 129 0.453571 -0.42756 -0.781963
-0.83194 0.616038 1.7617 104 111 114 -0.087655 -0.964202 -0.250261
-0.856061 0.575897 1.7617 94 115 126 -0.029531 -0.670768 -0.741079
-0.856733 0.576045 1.7617 94 115 126 -0.215909 -0.613553 -0.759563
-0.828925 0.616284 1.7617 104 120 120 0.035839 -0.962704 -0.268173
-0.807819 0.585368 1.7617 85 114 130 0.440859 -0.260854 -0.858836
-0.82591 0.616265 1.7617 95 114 122 -0.138924 -0.931201 -0.336993
-0.80607 0.588106 1.7617 83 112 129 0.471004 -0.212177 -0.856234
-0.810794 0.591121 1.7617 76 107 124 0.070549 0.286043 -0.955616
-0.818329 0.603182 1.7617 77 101 115 -0.538396 0.14308 -0.830457
-0.804811 0.591121 1.7617 77 107 124 0.362959 -0.067806 -0.929335
-0.853046 0.575873 1.7617 94 115 126 -0.038232 -0.709416 -0.703752
-0.816864 0.605765 1.7617 77 101 115 -0.27911 0.305414 -0.910396
-0.850031 0.575424 1.7617 95 122 134 -0.061807 -0.702874 -0.708624
-0.816864 0.608286 1.7617 77 101 115 -0.42196 -0.225145 -0.878214
-0.871962 0.585091 1.7617 84 102 113 -0.374297 -0.444379 -0.813898
-0.877167 0.590685 1.7617 84 102 113 -0.312563 -0.401866 -0.860702
-0.807819 0.5918 1.7617 69 99 117 -0.019978 0.203303 -0.978912
-0.874152 0.587895 1.7617 84 102 113 -0.408087 -0.31261 -0.857753
-0.804804 0.591162 1.7617 76 107 123 0.435771 -0.09328 -0.895211
-0.805511 0.594136 1.7617 76 107 123 -0.157421 0.031025 -0.987044
-0.874224 0.588106 1.7617 84 102 113 -0.331192 -0.361717 -0.871477
-0.817797 0.609212 1.7617 77 101 115 -0.398518 -0.456602 -0.795423
-0.807819 0.596958 1.7617 63 92 111 0.072538 -0.210236 -0.974956
-0.816449 0.606197 1.7617 75 101 117 -0.360916 -0.042997 -0.931607
-0.826055 0.576045 1.7617 100 121 132 0.114351 -0.696503 -0.708384
-0.81988 0.610694 1.7617 86 103 113 -0.459918 -0.597058 -0.657265
-0.82591 0.57607 1.7617 100 122 132 0.203212 -0.665479 -0.718221
-0.804804 0.594445 1.7617 69 99 117 0.105854 0.094222 -0.989908
-0.821266 0.612227 1.7617 86 103 113 -0.648259 -0.500086 -0.574173
-0.822895 0.576667 1.7617 100 120 132 0.119607 -0.612799 -0.781135
-0.804173 0.594136 1.7617 73 103 120 0.468728 -0.194931 -0.861566
-0.806688 0.606197 1.7617 63 95 113 0.487391 -0.074016 -0.870041
-0.81988 0.577257 1.7617 97 124 137 0.267464 -0.523978 -0.808647
-0.805975 0.609212 1.7617 63 95 113 0.517403 -0.108093 -0.848887
-0.805842 0.612227 1.7617 54 84 103 0.655314 -0.038215 -0.754389
-0.805755 0.615242 1.7617 53 84 102 0.714003 0.117269 -0.690252
-0.883197 0.600166 1.7592 76 96 111 -0.715535 -0.18927 -0.672449
-0.883197 0.603182 1.75956 76 96 111 -0.686841 0.175917 -0.705197
-0.880182 0.594136 1.7611 78 99 115 -0.461412 -0.438586 -0.771194
-0.877167 0.591121 1.76137 79 99 114 -0.198237 -0.59471 -0.779116
-0.810834 0.597151 1.76168 63 93 112 0.018738 -0.115733 -0.993104
-0.807819 0.597151 1.7615 63 93 112 0.0975 -0.15287 -0.983425
-0.810834 0.600166 1.76141 63 93 112 0.076938 -0.147959 -0.985996
-0.807819 0.600166 1.7611 63 93 112 0.032029 -0.027896 -0.999098
-0.877167 0.594136 1.75907 79 99 114 -0.313299 -0.526406 -0.790405
-0.810834 0.603182 1.76037 63 95 113 0.155556 -0.218302 -0.963404
-0.807819 0.603182 1.76145 63 95 113 0.258848 -0.069447 -0.963418
-0.880182 0.597151 1.75915 78 99 115 -0.533074 -0.398575 -0.746304
-0.874152 0.591121 1.76075 77 101 119 -0.253155 -0.438095 -0.862546
-0.862091 0.579061 1.76054 88 102 112 -0.455586 -0.5086 -0.730594
-0.871137 0.591121 1.75959 77 101 119 -0.35882 -0.275443 -0.89184
-0.83797 0.615242 1.76019 90 101 103 0.490565 -0.741628 -0.45753
-0.859076 0.579061 1.75926 94 111 122 -0.129859 -0.738853 -0.661236
-0.871137 0.594136 1.75889 77 101 119 -0.114341 -0.16352 -0.979891
-0.822895 0.615242 1.76078 88 101 105 -0.492365 -0.706002 -0.509056
-0.856061 0.576045 1.76156 94 115 126 -0.085048 -0.578041 -0.811564
-0.853046 0.576045 1.76155 94 115 126 -0.07055 -0.640711 -0.764534
-0.865107 0.582076 1.76105 89 110 121 -0.504017 -0.517412 -0.691558
-0.856061 0.579061 1.75968 93 113 124 -0.067659 -0.637726 -0.767286
-0.853046 0.579061 1.75912 95 117 128 -0.109916 -0.599409 -0.792861
-0.850031 0.576045 1.76104 95 122 134 -0.127041 -0.677056 -0.724883
-0.816864 0.603182 1.76067 77 101 115 -0.172022 0.024245 -0.984795
-0.847016 0.576045 1.76092 95 120 131 -0.064482 -0.772347 -0.63192
-0.816864 0.609212 1.76122 77 101 115 -0.352979 -0.580707 -0.733611
-0.871137 0.585091 1.76136 89 110 121 -0.305559 -0.468524 -0.828927
-0.880182 0.612227 1.76108 57 87 109 -0.26682 0.205991 -0.941475
-0.868122 0.585091 1.76026 89 110 121 -0.425588 -0.564691 -0.707106
-0.813849 0.603182 1.76085 75 101 117 -0.153474 -0.0216 -0.987917
-0.874152 0.588106 1.76167 84 102 113 -0.377713 -0.261264 -0.888298
-0.862091 0.582076 1.75875 90 109 121 -0.552146 -0.429447 -0.71464
-0.813849 0.606197 1.76061 75 101 117 -0.377262 -0.182176 -0.908012
-0.871137 0.588106 1.76039 88 104 114 -0.448769 -0.314295 -0.836556
-0.810834 0.606197 1.75965 74 101 117 0.052608 -0.226335 -0.972628
-0.813849 0.609212 1.75956 71 101 118 -0.337347 -0.355665 -0.871607
-0.810834 0.609212 1.75887 74 101 117 0.127782 -0.26742 -0.95507
-0.81988 0.612227 1.75974 86 103 113 -0.481851 -0.629596 -0.609449
-0.844001 0.576045 1.76037 92 118 131 -0.104658 -0.714917 -0.691332
-0.840986 0.576045 1.75991 90 118 132 -0.052863 -0.727224 -0.684362
-0.807819 0.606197 1.76102 63 96 113 0.43778 -0.170167 -0.882832
-0.83797 0.576045 1.7599 97 119 131 0.001382 -0.667359 -0.744734
-0.834955 0.576045 1.75997 97 119 131 0.032184 -0.611489 -0.790598
-0.877167 0.612227 1.76045 69 95 114 -0.342448 0.001254 -0.939536
-0.807819 0.609212 1.76037 62 94 112 0.530974 -0.218816 -0.818649
-0.83194 0.576045 1.76048 95 117 128 0.141923 -0.596076 -0.790286
-0.807819 0.612227 1.75944 58 90 107 0.748008 -0.09222 -0.657252
-0.877167 0.615242 1.7602 69 92 110 -0.561217 0.118691 -0.819114
-0.828925 0.576045 1.76108 98 122 133 0.155524 -0.620586 -0.76856
-0.828925 0.579061 1.75871 98 122 133 -0.001371 -0.618487 -0.785794
-0.877167 0.618257 1.76157 52 79 100 -0.656152 0.315925 -0.685314
-0.807819 0.615242 1.75952 57 84 102 0.693809 0.11095 -0.711561
-0.822895 0.579061 1.75984 100 120 132 0.215809 -0.610164 -0.762317
-0.810834 0.618257 1.75913 60 87 104 0.4375 0.424585 -0.792667
-0.810834 0.621272 1.76063 54 83 101 0.515448 0.433108 -0.739413
-0.81988 0.579061 1.76074 97 124 137 0.334208 -0.434627 -0.836304
-0.807819 0.618257 1.76069 57 83 100 0.484541 0.397032 -0.779478
-0.828925 0.588106 1.76019 61 90 107 0.135788 0.297119 -0.945136
-0.81988 0.582076 1.7593 101 124 135 0.181851 -0.306787 -0.934244
-0.816864 0.582076 1.75935 98 122 135 0.138482 -0.429722 -0.892279
-0.81988 0.585091 1.75878 85 110 123 0.173953 0.112268 -0.978333
-0.816864 0.585091 1.75935 81 106 123 0.099686 0.054884 -0.993504
-0.813849 0.582076 1.76021 92 119 133 0.283724 -0.295364 -0.912283
-0.813849 0.585091 1.75975 91 119 133 0.162825 -0.108958 -0.98062
-0.810834 0.585091 1.76035 91 118 133 0.304509 -0.238746 -0.922103
-0.813849 0.588106 1.75955 79 107 123 0.023017 -0.001001 -0.999735
-0.810834 0.588106 1.75972 84 112 129 0.303632 0.178852 -0.935852
-0.813849 0.591121 1.75973 81 108 125 0.115875 0.299677 -0.946978
-0.807819 0.588106 1.761 85 114 130 0.302957 0.044366 -0.951971
-0.807819 0.591121 1.76129 76 107 124 0.075264 0.119264 -0.990006
-0.813849 0.600166 1.76105 68 99 118 0.014213 -0.11042 -0.993783
-0.804804 0.594136 1.76166 76 107 123 0.000978 0.000978 -0.999999
-0.868122 0.57872 1.76472 96 102 110 -0.31003 -0.579901 -0.75339
-0.847016 0.57198 1.76472 92 115 129 -0.143181 -0.833995 -0.532871
-0.844001 0.571529 1.76472 92 115 129 -0.03786 -0.806272 -0.590332
-0.840986 0.571794 1.76472 92 115 129 -0.029365 -0.784473 -0.619468
-0.83797 0.571393 1.76472 94 117 131 -0.043557 -0.805103 -0.591533
-0.834955 0.571414 1.76472 93 115 129 0.058022 -0.819378 -0.57031
-0.83194 0.571978 1.76472 95 119 133 0.188333 -0.764049 -0.617058
-0.887908 0.609212 1.76472 55 82 104 -0.645096 0.073601 -0.760549
-0.886985 0.612227 1.76472 55 82 104 -0.532805 0.185652 -0.825622
-0.886212 0.613505 1.76472 56 80 103 -0.493826 0.328688 -0.805047
-0.868767 0.579061 1.76472 96 102 110 -0.237774 -0.504694 -0.829908
-0.884999 0.615242 1.76472 54 81 103 -0.49595 0.42393 -0.757837
-0.865107 0.577103 1.76472 96 102 110 -0.334001 -0.679406 -0.653338
-0.822895 0.609903 1.76472 96 107 109 -0.465638 -0.508722 -0.724142
-0.862091 0.575853 1.76472 90 102 112 -0.424942 -0.65491 -0.624914
-0.829236 0.57303 1.76472 95 119 133 0.319224 -0.771592 -0.55022
-0.86254 0.576045 1.76472 90 102 112 -0.325008 -0.738949 -0.590189
-0.825752 0.612227 1.76472 96 107 109 -0.434399 -0.490133 -0.75569
-0.859076 0.573906 1.76472 91 107 117 -0.40593 -0.63789 -0.654459
-0.828925 0.614305 1.76472 100 110 112 -0.252946 -0.579734 -0.774549
-0.828925 0.573128 1.76472 96 120 134 0.061225 -0.795929 -0.602286
-0.856061 0.572529 1.76472 95 104 114 0.026208 -0.828995 -0.558641
-0.82591 0.612378 1.76472 100 110 112 -0.333921 -0.512864 -0.790865
-0.857656 0.57303 1.76472 95 104 114 -0.254293 -0.728131 -0.636522
-0.82591 0.573294 1.76472 96 120 134 0.10773 -0.754108 -0.647854
-0.822895 0.573743 1.76472 96 120 134 0.079989 -0.740261 -0.667544
-0.853375 0.57303 1.76472 95 104 114 0.120245 -0.761551 -0.636853
-0.810005 0.579061 1.76472 99 124 136 0.64037 -0.586586 -0.495825
-0.850031 0.572435 1.76472 92 110 123 -0.111914 -0.832811 -0.542127
-0.81988 0.573896 1.76472 101 123 131 0.146537 -0.70549 -0.693405
-0.816864 0.575052 1.76472 101 124 134 0.301543 -0.659524 -0.688549
-0.814621 0.576045 1.76472 103 126 137 0.311529 -0.64727 -0.695694
-0.852767 0.57303 1.76472 92 110 123 -0.161853 -0.763887 -0.624724
-0.822242 0.609212 1.76472 97 111 118 -0.616517 -0.218964 -0.756281
-0.813849 0.576465 1.76472 101 126 137 0.352172 -0.669946 -0.653566
-0.807819 0.58139 1.76472 99 124 136 0.527643 -0.625417 -0.574844
-0.810834 0.578198 1.76472 100 124 137 0.449051 -0.662725 -0.59929
-0.853046 0.573059 1.76472 94 116 128 0.00138 -0.732842 -0.680398
-0.799515 0.603182 1.76472 52 84 103 0.501742 0.012106 -0.864933
-0.807143 0.582076 1.76472 99 124 136 0.563259 -0.407991 -0.718527
-0.798774 0.60607 1.76472 52 84 103 0.693405 -0.146537 -0.70549
-0.805144 0.585091 1.76472 98 124 136 0.598441 -0.416091 -0.684643
-0.883197 0.589949 1.76472 98 104 110 -0.588875 -0.288852 -0.754845
-0.883638 0.591121 1.76472 98 104 110 -0.677477 -0.315293 -0.664542
-0.798774 0.606574 1.76472 51 83 103 0.68351 0.383754 -0.620924
-0.804804 0.58538 1.76472 86 117 132 0.7222 -0.278995 -0.632921
-0.880182 0.584881 1.76472 100 107 114 -0.032424 -0.680904 -0.731655
-0.803852 0.588106 1.76472 87 115 129 0.744588 -0.268306 -0.611229
-0.880588 0.585091 1.76472 100 107 114 -0.554962 -0.432373 -0.710683
-0.798632 0.606197 1.76472 51 83 101 0.933019 0.001263 -0.359825
-0.802789 0.591121 1.76472 87 115 130 0.657351 -0.344171 -0.6704
-0.877167 0.584934 1.76472 104 108 113 -0.339802 -0.421229 -0.840893
-0.800742 0.609212 1.76472 51 83 103 0.729816 0.299947 -0.614329
-0.801789 0.591842 1.76472 80 107 123 0.489818 -0.493138 -0.718953
-0.874152 0.580124 1.76472 103 110 116 -0.341119 -0.432294 -0.834721
-0.799552 0.594136 1.76472 77 105 122 0.557646 -0.37449 -0.740803
-0.798837 0.597151 1.76472 73 102 119 0.63127 -0.052725 -0.773769
-0.799429 0.600166 1.76472 71 99 114 0.640824 0.085734 -0.762886
-0.887146 0.603182 1.76472 58 87 111 -0.709116 -0.140017 -0.69105
-0.8876 0.606197 1.76472 58 87 111 -0.668016 -0.073902 -0.740469
-0.875566 0.582076 1.76472 103 110 116 -0.488841 -0.401142 -0.774674
-0.871137 0.580314 1.76472 98 108 116 -0.147214 -0.374344 -0.91553
-0.807368 0.624287 1.76472 71 88 100 0.657202 0.311646 -0.686267
-0.807819 0.624931 1.76472 68 80 88 0.558275 0.458286 -0.691595
-0.882008 0.588106 1.76472 97 105 114 -0.418441 -0.255294 -0.871626
-0.840986 0.611719 1.76472 74 82 84 0.778447 -0.574829 -0.252173
-0.840352 0.612227 1.76472 82 91 95 0.625063 -0.625063 -0.46754
-0.885148 0.594136 1.76472 83 98 111 -0.637939 -0.2473 -0.729298
-0.83797 0.613984 1.76472 85 93 97 0.430159 -0.820636 -0.376191
-0.885881 0.597151 1.76472 87 99 111 -0.684846 -0.179255 -0.706296
-0.886212 0.598221 1.76472 78 96 112 -0.710394 -0.182585 -0.679708
-0.834955 0.614967 1.76472 82 91 95 0.137709 -0.809963 -0.570084
-0.83194 0.615063 1.76472 80 87 90 -0.139875 -0.732462 -0.666285
-0.886693 0.600166 1.76472 78 96 112 -0.740983 -0.13978 -0.656815
-0.811699 0.630318 1.76472 80 90 100 0.588123 0.500495 -0.635308
-0.865107 0.579061 1.76273 90 104 115 -0.452188 -0.511817 -0.730458
-0.868122 0.579061 1.76444 96 102 110 -0.407611 -0.518926 -0.751378
-0.862091 0.576045 1.76451 90 102 112 -0.331237 -0.741648 -0.583301
-0.847016 0.57303 1.7637 92 115 129 -0.127041 -0.677056 -0.724883
-0.859076 0.576045 1.7626 91 107 117 -0.352172 -0.653566 -0.669946
-0.886212 0.609212 1.7632 55 82 104 -0.615156 0.188689 -0.765493
-0.856061 0.57303 1.76429 95 104 114 -0.015335 -0.690096 -0.723555
-0.886212 0.612227 1.76425 55 82 104 -0.533151 0.295843 -0.792607
-0.850031 0.57303 1.76403 92 110 123 -0.098425 -0.700729 -0.706605
-0.883197 0.612227 1.76255 54 84 106 -0.454458 0.343615 -0.821825
-0.844001 0.57303 1.76304 92 115 129 -0.052994 -0.703243 -0.708972
-0.883197 0.615242 1.76362 54 81 103 -0.452336 0.372418 -0.810368
-0.822895 0.612227 1.76295 96 107 109 -0.499351 -0.479443 -0.721653
-0.828925 0.615242 1.76374 100 110 112 -0.105749 -0.827162 -0.551924
-0.840986 0.57303 1.76325 92 115 129 -0.009713 -0.739591 -0.672986
-0.883197 0.591121 1.76429 98 104 110 -0.474324 -0.287705 -0.832011
-0.880182 0.615242 1.76197 67 78 97 -0.474234 0.425344 -0.770834
-0.82591 0.615242 1.76299 100 110 112 -0.362222 -0.550642 -0.752057
-0.83797 0.57303 1.76292 94 117 131 -0.088948 -0.765535 -0.637217
-0.880182 0.585091 1.76456 100 107 114 -0.117646 -0.328598 -0.937114
-0.834955 0.57303 1.76222 93 115 129 0.015106 -0.825348 -0.564423
-0.877167 0.585091 1.76465 104 108 113 -0.248997 -0.42405 -0.870736
-0.83194 0.615242 1.7643 102 111 112 -0.01671 -0.929319 -0.3689
-0.874152 0.582076 1.76421 103 110 116 -0.106983 -0.35074 -0.930342
-0.83194 0.57303 1.76308 95 119 133 0.238624 -0.784496 -0.572385
-0.871137 0.582076 1.76406 98 108 116 -0.215708 -0.527795 -0.821525
-0.874152 0.585091 1.76284 98 108 116 -0.377468 -0.405897 -0.832325
-0.880182 0.588106 1.76396 97 105 114 -0.298312 -0.241219 -0.923484
-0.798774 0.606197 1.76457 51 83 101 0.353743 0.001259 -0.935342
-0.877167 0.588106 1.76317 93 104 114 -0.320148 -0.378356 -0.868534
-0.82591 0.576045 1.76173 96 120 134 0.111102 -0.730311 -0.674019
-0.880182 0.591121 1.76296 93 103 112 -0.39389 -0.353412 -0.848499
-0.822895 0.576045 1.76223 96 120 134 0.086052 -0.710294 -0.698626
-0.81988 0.609212 1.76271 97 111 118 -0.559169 -0.333568 -0.758988
-0.883197 0.594136 1.7633 83 98 111 -0.509211 -0.333621 -0.793348
-0.81988 0.576045 1.76263 101 123 131 0.1962 -0.650396 -0.733819
-0.883197 0.597151 1.76204 87 99 111 -0.632574 -0.272469 -0.72499
-0.804804 0.603182 1.76286 58 90 110 0.376017 0.079516 -0.923195
-0.886212 0.600166 1.76411 78 96 112 -0.774014 -0.151797 -0.614703
-0.886212 0.603182 1.76348 78 96 112 -0.772748 -0.104108 -0.626117
-0.816864 0.576045 1.76385 101 124 134 0.289081 -0.529193 -0.797739
-0.868122 0.582076 1.76293 90 104 115 -0.381354 -0.435605 -0.815363
-0.816864 0.579061 1.76219 78 105 120 0.19777 -0.508767 -0.83788
-0.804804 0.606197 1.76285 58 90 110 0.332485 -0.086102 -0.93917
-0.813849 0.579061 1.76264 97 122 137 0.232151 -0.596736 -0.768122
-0.810834 0.579061 1.76392 100 124 137 0.4363 -0.559061 -0.705048
-0.810834 0.582076 1.76177 97 122 135 0.541481 -0.491188 -0.682299
-0.804804 0.609212 1.76221 52 86 106 0.235661 -0.136709 -0.962172
-0.801789 0.603182 1.76363 53 85 103 0.288163 0.109213 -0.951333
-0.810834 0.591121 1.76171 68 97 114 0.001048 0.076536 -0.997066
-0.801789 0.606197 1.76352 53 85 103 0.362156 -0.078846 -0.928777
-0.807819 0.582076 1.76416 99 124 136 0.573342 -0.466363 -0.673635
-0.801789 0.609212 1.7626 50 83 102 0.554333 0.130864 -0.821942
-0.807819 0.585091 1.76211 93 120 135 0.625337 -0.457686 -0.632043
-0.804804 0.588106 1.76314 86 117 132 0.71002 -0.365669 -0.601795
-0.804804 0.591121 1.76171 80 110 126 0.808647 -0.267464 -0.523978
-0.810834 0.624287 1.76229 74 87 97 0.504878 0.403576 -0.763036
-0.813849 0.627303 1.76236 76 88 98 0.469289 0.309197 -0.827142
-0.810834 0.594136 1.76193 65 96 112 0.081042 -0.001052 -0.99671
-0.807819 0.594136 1.76245 69 102 119 -0.037461 0.001012 -0.999298
-0.804804 0.597151 1.76205 69 97 114 0.16002 0.090237 -0.982981
-0.801789 0.594136 1.76304 80 107 123 0.53031 -0.331644 -0.780245
-0.801789 0.597151 1.76231 77 105 122 0.45723 0.025476 -0.888984
-0.804804 0.600166 1.7622 59 90 108 0.255351 0.161767 -0.95322
-0.801789 0.600166 1.76282 69 97 113 0.364251 0.146538 -0.9197
-0.886212 0.606197 1.76319 58 87 111 -0.705591 -0.018164 -0.708386
-0.813849 0.630318 1.76318 85 94 98 0.40277 0.380657 -0.832392
-0.871137 0.575897 1.76773 105 109 113 -0.339875 -0.87331 -0.349019
-0.871554 0.576045 1.76773 105 109 113 -0.410302 -0.723384 -0.555309
-0.874152 0.577581 1.76773 105 109 113 -0.434587 -0.779652 -0.450863
-0.876041 0.579061 1.76773 105 109 113 -0.542624 -0.620383 -0.56629
-0.844001 0.569736 1.76773 92 115 129 -0.039791 -0.863045 -0.503557
-0.845834 0.570015 1.76773 92 115 129 -0.123504 -0.844189 -0.521624
-0.859076 0.571233 1.76773 94 101 109 -0.348269 -0.759713 -0.549131
-0.86191 0.57303 1.76773 94 101 109 -0.455439 -0.69567 -0.555535
-0.840986 0.569651 1.76773 92 115 129 -0.023055 -0.863893 -0.503147
-0.868122 0.575191 1.76773 104 106 110 -0.188262 -0.86719 -0.461019
-0.807855 0.579061 1.76773 103 126 136 0.628932 -0.541252 -0.558114
-0.865107 0.574825 1.76773 96 102 110 -0.267707 -0.799991 -0.53698
-0.807819 0.579082 1.76773 103 126 136 0.476941 -0.6878 -0.547228
-0.886707 0.618257 1.76773 57 77 98 -0.531955 0.505105 -0.679627
-0.804804 0.580649 1.76773 102 126 137 0.47918 -0.637225 -0.603598
-0.862091 0.573151 1.76773 90 100 110 -0.400328 -0.726522 -0.558483
-0.803404 0.582076 1.76773 101 124 135 0.650249 -0.414097 -0.636945
-0.856061 0.570738 1.76773 92 100 109 -0.057386 -0.843996 -0.533271
-0.853046 0.570983 1.76773 98 108 119 0.006739 -0.853162 -0.521602
-0.804804 0.625561 1.76773 64 77 89 0.550828 0.477161 -0.684767
-0.80652 0.627303 1.76773 64 77 89 0.534956 0.511478 -0.672468
-0.850031 0.570887 1.76773 92 108 121 -0.103536 -0.872254 -0.477967
-0.847016 0.570249 1.76773 92 110 123 -0.176608 -0.856325 -0.4853
-0.883197 0.584807 1.76773 100 103 109 -0.711605 -0.644442 -0.279845
-0.883478 0.585091 1.76773 100 103 109 -0.812778 -0.508965 -0.283454
-0.885261 0.588106 1.76773 100 105 111 -0.781566 -0.414344 -0.46634
-0.886212 0.590223 1.76773 98 104 110 -0.788364 -0.354844 -0.502562
-0.886581 0.591121 1.76773 98 104 110 -0.802239 -0.346095 -0.486447
-0.880182 0.58176 1.76773 104 108 113 -0.533982 -0.729059 -0.428178
-0.880575 0.582076 1.76773 104 108 113 -0.627 -0.633688 -0.453112
-0.877167 0.57961 1.76773 104 108 113 -0.451946 -0.69543 -0.558679
-0.83797 0.569576 1.76773 94 117 131 -0.020256 -0.868314 -0.495601
-0.889228 0.596894 1.76773 90 99 111 -0.76559 -0.351232 -0.538988
-0.834955 0.569586 1.76773 94 117 131 -0.004048 -0.846091 -0.533024
-0.798774 0.590621 1.76773 94 118 130 0.633039 -0.525 -0.568891
-0.83194 0.569721 1.76773 95 119 133 0.052015 -0.822393 -0.566537
-0.798278 0.591121 1.76773 94 118 130 0.471927 -0.541966 -0.695384
-0.828925 0.569961 1.76773 95 119 133 -0.015271 -0.770516 -0.637238
-0.889292 0.597151 1.76773 90 99 111 -0.865776 -0.116298 -0.48673
-0.796821 0.594136 1.76773 81 109 126 0.686841 -0.175917 -0.705197
-0.887874 0.594136 1.76773 90 100 110 -0.768976 -0.336931 -0.543281
-0.796577 0.597151 1.76773 78 105 120 0.783836 -0.064484 -0.617611
-0.828565 0.570015 1.76773 98 121 134 0.092409 -0.708468 -0.699667
-0.795962 0.600166 1.76773 68 96 111 0.877417 0.031191 -0.478714
-0.796883 0.603182 1.76773 64 91 108 0.771755 0.165268 -0.614069
-0.889377 0.600166 1.76773 90 99 111 -0.826157 -0.096601 -0.555097
-0.82591 0.570477 1.76773 96 120 133 0.130279 -0.720277 -0.681343
-0.822895 0.571078 1.76773 100 122 134 0.098553 -0.731057 -0.675161
-0.890002 0.603182 1.76773 90 99 111 -0.751655 -0.267431 -0.602906
-0.797558 0.606197 1.76773 51 83 101 0.794496 0.154694 -0.587236
-0.798445 0.609212 1.76773 49 83 101 0.65791 0.209971 -0.723234
-0.81988 0.571438 1.76773 99 119 130 0.120369 -0.753421 -0.646427
-0.816864 0.571924 1.76773 99 120 131 0.23601 -0.758047 -0.608
-0.813849 0.572939 1.76773 108 128 138 0.284706 -0.806928 -0.517504
-0.83797 0.612139 1.76773 82 91 95 0.67026 -0.311711 -0.67349
-0.813712 0.57303 1.76773 108 128 138 0.49957 -0.630771 -0.593766
-0.837767 0.612227 1.76773 82 91 95 0.126409 -0.623124 -0.77184
-0.810834 0.57559 1.76773 103 126 137 0.506597 -0.587383 -0.631142
-0.834955 0.612642 1.76773 82 91 95 0.073498 -0.782539 -0.618249
-0.810438 0.576045 1.76773 106 129 138 0.625702 -0.541375 -0.561614
-0.83194 0.612307 1.76773 88 97 100 -0.092192 -0.721437 -0.686316
-0.802138 0.585091 1.76773 93 122 135 0.690181 -0.315188 -0.651389
-0.801789 0.585956 1.76773 87 117 131 0.687749 -0.297971 -0.661978
-0.800733 0.588106 1.76773 87 115 130 0.726485 -0.364059 -0.582821
-0.891501 0.606197 1.76773 81 102 123 -0.70468 -0.202886 -0.6799
-0.891825 0.609212 1.76773 84 104 123 -0.655427 0.0097 -0.755196
-0.89125 0.612227 1.76773 82 96 114 -0.662194 0.21346 -0.718286
-0.871137 0.576045 1.76757 105 109 113 -0.206053 -0.630552 -0.748296
-0.874152 0.579061 1.76546 105 109 113 -0.307087 -0.728327 -0.612566
-0.871137 0.579061 1.76528 108 110 113 -0.181294 -0.604821 -0.775451
-0.889228 0.609212 1.76567 55 82 104 -0.59466 0.058189 -0.801869
-0.859076 0.57303 1.76555 94 101 109 -0.428099 -0.67463 -0.601337
-0.868122 0.576045 1.76677 104 106 110 -0.209971 -0.65791 -0.723234
-0.889228 0.612227 1.76612 55 82 104 -0.549469 0.275522 -0.788779
-0.865107 0.576045 1.76593 96 102 110 -0.218074 -0.777953 -0.589265
-0.889228 0.615242 1.7675 55 80 103 -0.534743 0.353803 -0.767381
-0.886212 0.615242 1.76558 55 80 103 -0.505467 0.407318 -0.760654
-0.844001 0.570015 1.76721 92 115 129 -0.057018 -0.858055 -0.510383
-0.840986 0.570015 1.7672 92 115 129 -0.023343 -0.836233 -0.547877
-0.886212 0.618257 1.76735 57 77 98 -0.481264 0.481264 -0.732646
-0.83797 0.570015 1.76686 94 117 131 -0.0231 -0.860128 -0.509555
-0.853046 0.57303 1.76475 98 108 119 0.001358 -0.824239 -0.56624
-0.834955 0.570015 1.7669 94 117 131 0.028838 -0.850029 -0.525947
-0.883197 0.585091 1.76728 100 103 109 -0.639958 -0.47199 -0.606365
-0.83194 0.570015 1.76731 95 119 133 0.097159 -0.807722 -0.581502
-0.883197 0.588106 1.76547 100 105 111 -0.645519 -0.344821 -0.681472
-0.828925 0.570015 1.76767 95 119 133 0.175798 -0.723067 -0.668034
-0.804804 0.582076 1.76653 102 126 137 0.598718 -0.409649 -0.688277
-0.886212 0.591121 1.76737 98 104 110 -0.675481 -0.330416 -0.659204
-0.804804 0.585091 1.76484 97 123 135 0.660699 -0.362319 -0.65742
-0.828925 0.57303 1.76483 95 119 133 0.152727 -0.68198 -0.715247
-0.880182 0.582076 1.76736 104 108 113 -0.272608 -0.549943 -0.78946
-0.801789 0.588106 1.76668 87 117 131 0.629332 -0.315475 -0.710223
-0.801789 0.591121 1.76516 85 113 128 0.530328 -0.427897 -0.731886
-0.798774 0.591121 1.7673 87 115 130 0.585753 -0.442235 -0.679206
-0.82591 0.57303 1.76501 96 120 133 0.095308 -0.714077 -0.693549
-0.798774 0.594136 1.76539 77 105 122 0.7436 -0.209574 -0.634932
-0.822895 0.57303 1.76557 100 122 134 0.101407 -0.739243 -0.66576
-0.798774 0.597151 1.76477 77 105 122 0.800158 -0.004117 -0.599775
-0.798774 0.600166 1.76535 69 97 113 0.701495 0.009724 -0.712608
-0.822895 0.609212 1.76516 89 99 102 -0.448899 -0.161255 -0.878912
-0.798774 0.603182 1.7654 66 95 112 0.769947 0.05571 -0.635671
-0.889228 0.603182 1.76686 81 102 123 -0.699946 -0.193142 -0.687585
-0.81988 0.57303 1.76574 99 119 130 0.095008 -0.758601 -0.644592
-0.816864 0.57303 1.76655 99 120 131 0.269175 -0.645066 -0.715147
-0.83797 0.612227 1.76767 82 91 95 0.520631 -0.728884 -0.444603
-0.798774 0.609212 1.76733 49 82 101 0.796447 0.394201 -0.45856
-0.813849 0.57303 1.76762 108 128 138 0.278056 -0.602189 -0.748367
-0.889228 0.606197 1.76584 81 102 123 -0.629607 -0.126517 -0.766543
-0.813849 0.576045 1.76551 104 125 134 0.376115 -0.609338 -0.698029
-0.810834 0.576045 1.76727 103 126 137 0.448446 -0.695175 -0.561808
-0.877167 0.582076 1.76564 104 108 113 -0.430963 -0.483399 -0.761969
-0.889228 0.597151 1.7676 90 99 111 -0.690551 -0.073833 -0.719505
-0.886212 0.594136 1.76578 90 100 110 -0.703234 -0.283536 -0.651973
-0.886212 0.597151 1.76496 87 99 111 -0.671514 -0.234322 -0.702967
-0.889228 0.600166 1.76752 90 99 111 -0.723377 -0.107989 -0.681956
-0.834955 0.567604 1.77075 95 120 135 -0.039944 -0.855347 -0.516514
-0.865107 0.572898 1.77075 101 101 106 -0.456392 -0.82966 -0.321513
-0.83194 0.567574 1.77075 95 120 135 -0.017978 -0.8007 -0.598796
-0.865434 0.57303 1.77075 101 101 106 -0.249331 -0.868882 -0.427641
-0.828925 0.567104 1.77075 96 121 136 -0.009718 -0.731621 -0.681643
-0.859076 0.569236 1.77075 91 96 103 -0.306598 -0.838865 -0.449781
-0.82591 0.567454 1.77075 95 121 135 0.114061 -0.72436 -0.679921
-0.860515 0.570015 1.77075 91 96 103 -0.49442 -0.776482 -0.390673
-0.822895 0.56797 1.77075 91 119 134 0.113935 -0.741316 -0.661414
-0.862091 0.571117 1.77075 91 96 103 -0.481664 -0.765765 -0.42615
-0.81988 0.568339 1.77075 99 122 135 0.189149 -0.748906 -0.635109
-0.871137 0.574706 1.77075 103 103 108 -0.365335 -0.869771 -0.331705
-0.816864 0.569402 1.77075 101 124 136 0.303114 -0.788731 -0.534814
-0.868122 0.573759 1.77075 103 103 108 -0.221749 -0.876578 -0.427127
-0.815637 0.570015 1.77075 107 128 139 0.405477 -0.746931 -0.526956
-0.813849 0.571026 1.77075 107 128 139 0.414804 -0.755828 -0.506618
-0.856061 0.568817 1.77075 96 100 105 0.028821 -0.846797 -0.531135
-0.853046 0.569394 1.77075 94 101 109 0.03161 -0.84796 -0.529116
-0.850031 0.569143 1.77075 93 108 119 -0.180754 -0.797446 -0.57568
-0.810834 0.572904 1.77075 112 132 140 0.463475 -0.74057 -0.486566
-0.847016 0.568095 1.77075 94 108 116 -0.147282 -0.816745 -0.557886
-0.894654 0.609212 1.77075 71 93 114 -0.669217 -0.029586 -0.742478
-0.894625 0.612227 1.77075 71 93 114 -0.52377 0.178592 -0.832929
-0.883197 0.583613 1.77075 100 103 109 -0.733644 -0.625895 -0.264619
-0.884408 0.585091 1.77075 100 103 109 -0.793993 -0.538274 -0.282554
-0.892628 0.615242 1.77075 71 93 114 -0.28364 0.343042 -0.895472
-0.886212 0.587921 1.77075 100 103 109 -0.782111 -0.51873 -0.345285
-0.886312 0.588106 1.77075 100 103 109 -0.821456 -0.433767 -0.370211
-0.889884 0.618257 1.77075 62 75 95 -0.571213 0.507183 -0.645353
-0.887901 0.591121 1.77075 100 103 109 -0.809416 -0.424743 -0.40551
-0.810635 0.57303 1.77075 111 132 142 0.404273 -0.707891 -0.579183
-0.880182 0.580512 1.77075 109 108 110 -0.568523 -0.793466 -0.21724
-0.881893 0.582076 1.77075 109 108 110 -0.687294 -0.674536 -0.269496
-0.807819 0.575122 1.77075 112 131 138 0.485368 -0.602931 -0.633161
-0.877843 0.579061 1.77075 109 108 110 -0.507487 -0.848754 -0.148569
-0.806624 0.576045 1.77075 116 133 140 0.473685 -0.574113 -0.667845
-0.804804 0.577706 1.77075 114 133 139 0.509403 -0.563202 -0.650624
-0.889228 0.59363 1.77075 104 105 114 -0.595738 -0.511355 -0.619365
-0.889587 0.594136 1.77075 104 105 114 -0.564001 -0.179936 -0.805932
-0.890699 0.597151 1.77075 104 105 114 -0.782107 -0.245091 -0.572921
-0.803279 0.579061 1.77075 111 130 139 0.509547 -0.566724 -0.647445
-0.8914 0.600166 1.77075 86 97 111 -0.803072 -0.170257 -0.57104
-0.801789 0.5806 1.77075 105 127 137 0.589761 -0.492308 -0.640168
-0.892243 0.602156 1.77075 86 97 111 -0.606554 -0.242935 -0.757017
-0.892615 0.603182 1.77075 86 97 111 -0.567307 -0.245364 -0.786104
-0.800797 0.582076 1.77075 104 126 136 0.649308 -0.336859 -0.681854
-0.799329 0.585091 1.77075 96 121 134 0.727481 -0.240399 -0.642635
-0.844001 0.567948 1.77075 95 114 126 -0.03705 -0.863136 -0.50361
-0.799226 0.588106 1.77075 95 120 133 0.833397 -0.124061 -0.53857
-0.840986 0.567953 1.77075 99 116 126 -0.020263 -0.871288 -0.490353
-0.798774 0.588652 1.77075 89 117 130 0.399325 -0.671064 -0.62467
-0.83797 0.567814 1.77075 93 118 133 -0.034194 -0.865793 -0.499233
-0.893875 0.606197 1.77075 80 100 121 -0.647519 -0.223121 -0.728654
-0.795758 0.588596 1.77075 93 117 130 0.318435 -0.54886 -0.772885
-0.794523 0.591121 1.77075 86 114 128 0.912059 -0.254562 -0.321475
-0.79426 0.594136 1.77075 76 98 113 0.963972 0.109105 -0.242598
-0.795377 0.597151 1.77075 60 80 96 0.942031 0.332101 0.047812
-0.795758 0.598399 1.77075 68 88 101 0.987405 0.156387 0.023972
-0.796022 0.600166 1.77075 68 88 101 0.999463 -0.009132 0.031455
-0.795758 0.602518 1.77075 64 78 89 0.987982 -0.151909 0.028554
-0.795546 0.603182 1.77075 72 93 106 0.961433 -0.236761 -0.139964
-0.794586 0.606197 1.77075 80 98 107 0.887092 -0.304704 -0.346732
-0.877167 0.578712 1.77075 113 106 107 -0.556054 -0.812231 -0.17631
-0.873276 0.576045 1.77075 112 110 110 -0.511731 -0.812197 -0.280122
-0.874152 0.576745 1.77075 112 110 110 -0.541393 -0.800388 -0.257435
-0.865107 0.57303 1.77056 101 101 106 -0.427667 -0.755381 -0.496487
-0.892243 0.609212 1.76832 71 93 114 -0.751583 0.023793 -0.659209
-0.892243 0.612227 1.769 71 93 114 -0.669748 0.244261 -0.701266
-0.859076 0.570015 1.76947 91 96 103 -0.212813 -0.81604 -0.537392
-0.82591 0.570015 1.7682 95 121 135 0.12365 -0.698695 -0.704654
-0.862091 0.57303 1.76791 91 96 103 -0.44296 -0.742658 -0.502241
-0.892243 0.615242 1.77056 71 93 114 -0.616353 0.358041 -0.701367
-0.822895 0.570015 1.76874 91 119 134 0.114097 -0.689027 -0.715699
-0.81988 0.570015 1.7692 99 122 135 0.142958 -0.687702 -0.711779
-0.889228 0.618257 1.77012 62 75 95 -0.569241 0.562485 -0.599646
-0.816864 0.570015 1.77003 101 124 136 0.206148 -0.720741 -0.661842
-0.810834 0.57303 1.77057 112 132 140 0.502162 -0.673468 -0.54247
-0.856061 0.570015 1.76885 96 100 105 -0.020483 -0.845279 -0.533932
-0.807819 0.576045 1.77009 112 131 138 0.499766 -0.523166 -0.690312
-0.853046 0.570015 1.76947 94 101 109 0.050969 -0.869226 -0.491781
-0.807819 0.579061 1.76775 107 128 136 0.41873 -0.557755 -0.716641
-0.804804 0.579061 1.76952 114 133 139 0.43178 -0.601825 -0.671843
-0.850031 0.570015 1.76924 93 108 119 -0.104022 -0.867797 -0.485909
-0.847016 0.570015 1.7682 94 108 116 -0.226513 -0.805892 -0.54702
-0.801789 0.582076 1.76964 105 127 137 0.705256 -0.355082 -0.613621
-0.886212 0.588106 1.7704 100 103 109 -0.835014 -0.454185 -0.310594
-0.801789 0.585091 1.7681 98 123 135 0.694787 -0.322291 -0.642962
-0.892243 0.603182 1.77029 80 100 121 -0.723155 -0.296638 -0.623741
-0.892243 0.606197 1.76885 80 100 121 -0.740203 -0.233172 -0.630659
-0.877167 0.579061 1.7694 109 108 110 -0.529339 -0.802647 -0.274879
-0.889228 0.594136 1.77024 104 105 114 -0.817789 -0.387374 -0.425633
-0.795758 0.591121 1.76923 93 117 130 0.532376 -0.401329 -0.745326
-0.795758 0.594136 1.76848 79 105 120 0.762653 0.001379 -0.646807
-0.795758 0.597151 1.76925 74 97 111 0.901635 0.092795 -0.422425
-0.795758 0.603182 1.7695 64 78 89 0.963794 0.006031 -0.266581
-0.795758 0.606197 1.76938 59 87 104 0.76341 0.049757 -0.643994
-0.868122 0.572566 1.77376 101 101 106 -0.318754 -0.931207 -0.176776
-0.822895 0.565959 1.77376 107 128 137 0.1502 -0.867658 -0.473931
-0.869416 0.57303 1.77376 101 101 106 -0.346815 -0.909844 -0.227824
-0.865107 0.571665 1.77376 101 101 106 -0.373816 -0.879299 -0.295118
-0.81988 0.566445 1.77376 107 128 137 0.17762 -0.876355 -0.447719
-0.859076 0.567888 1.77376 91 96 103 -0.521579 -0.773488 -0.3601
-0.818182 0.567 1.77376 107 128 137 0.285163 -0.830558 -0.478389
-0.816864 0.567448 1.77376 101 124 136 0.388797 -0.788887 -0.475914
-0.813849 0.569123 1.77376 101 125 137 0.371243 -0.766804 -0.523632
-0.812349 0.570015 1.77376 107 128 139 0.416205 -0.681515 -0.601922
-0.810834 0.570936 1.77376 110 131 142 0.37683 -0.745504 -0.549748
-0.807819 0.57206 1.77376 111 132 142 0.339199 -0.725463 -0.598872
-0.805795 0.57303 1.77376 111 132 142 0.391405 -0.649039 -0.652342
-0.804804 0.573895 1.77376 113 131 139 0.418167 -0.563616 -0.712371
-0.801789 0.576014 1.77376 111 130 139 0.404865 -0.573421 -0.712231
-0.80175 0.576045 1.77376 111 130 139 0.54413 -0.523914 -0.655314
-0.798989 0.579061 1.77376 109 127 137 0.538213 -0.494619 -0.682407
-0.798774 0.579291 1.77376 108 130 139 0.507383 -0.514081 -0.691581
-0.795758 0.581898 1.77376 100 123 133 0.552577 -0.62693 -0.549197
-0.795611 0.582076 1.77376 100 123 133 0.643368 -0.376806 -0.666404
-0.795343 0.585091 1.77376 100 123 133 0.506176 -0.104677 -0.856054
-0.794364 0.588106 1.77376 93 117 130 0.751579 -0.126503 -0.6474
-0.794107 0.591121 1.77376 90 116 129 0.985139 0.081996 -0.15092
-0.795758 0.596986 1.77376 61 82 96 0.915545 0.334885 0.222778
-0.795814 0.597151 1.77376 61 82 96 0.967327 0.158853 0.197598
-0.795935 0.603182 1.77376 88 95 101 0.97582 -0.159497 0.14945
-0.795758 0.603615 1.77376 73 94 106 0.90088 -0.429315 0.064057
-0.794223 0.606197 1.77376 114 125 126 0.819719 -0.572567 0.015104
-0.792743 0.607927 1.77376 77 95 104 0.790408 -0.602005 -0.113336
-0.861983 0.570015 1.77376 91 96 103 -0.536751 -0.790084 -0.296084
-0.792002 0.609212 1.77376 93 109 115 0.818414 -0.222645 -0.529743
-0.862091 0.57009 1.77376 91 96 103 -0.461509 -0.830715 -0.311323
-0.871137 0.573762 1.77376 96 101 108 -0.448519 -0.868727 -0.210104
-0.857215 0.567 1.77376 94 101 109 -0.319434 -0.826122 -0.464202
-0.855197 0.567 1.77376 95 102 109 -0.035381 -0.731679 -0.68073
-0.853046 0.567568 1.77376 95 102 109 0.001362 -0.813364 -0.581753
-0.851092 0.567 1.77376 93 108 119 -0.149662 -0.666675 -0.730168
-0.883197 0.582343 1.77376 100 103 109 -0.717019 -0.637173 -0.282656
-0.885621 0.585091 1.77376 100 103 109 -0.717632 -0.593395 -0.364537
-0.889228 0.590227 1.77376 100 103 109 -0.628407 -0.467535 -0.621704
-0.890259 0.591121 1.77376 100 103 109 -0.326278 -0.468138 -0.821212
-0.886212 0.58582 1.77376 100 103 109 -0.632904 -0.481813 -0.606043
-0.887732 0.588106 1.77376 100 103 109 -0.685104 -0.4384 -0.581755
-0.880182 0.579972 1.77376 109 108 110 -0.535241 -0.756496 -0.375808
-0.88294 0.582076 1.77376 109 108 110 -0.65466 -0.72619 -0.209926
-0.878456 0.579061 1.77376 109 108 110 -0.472708 -0.835376 -0.280525
-0.892243 0.591977 1.77376 106 104 112 -0.19625 -0.489875 -0.849417
-0.847016 0.566047 1.77376 102 119 130 0.032507 -0.696771 -0.716557
-0.844001 0.566439 1.77376 102 119 130 0.020842 -0.787832 -0.615537
-0.840986 0.566254 1.77376 102 119 130 0.020811 -0.803309 -0.595198
-0.83797 0.566256 1.77376 103 120 130 0.03929 -0.887417 -0.459289
-0.834955 0.566091 1.77376 103 120 130 -0.176992 -0.852238 -0.492305
-0.83194 0.565105 1.77376 102 124 135 -0.198469 -0.761568 -0.616947
-0.828925 0.564329 1.77376 102 124 135 0.067087 -0.80076 -0.595217
-0.82591 0.565428 1.77376 105 126 138 0.210291 -0.83965 -0.500764
-0.877167 0.578306 1.77376 113 106 107 -0.549229 -0.756608 -0.354812
-0.874152 0.575405 1.77376 113 110 109 -0.468043 -0.852777 -0.231749
-0.874822 0.576045 1.77376 113 110 109 -0.641433 -0.667816 -0.377605
-0.856061 0.566811 1.77376 94 99 107 0.00136 -0.819933 -0.572458
-0.850031 0.56644 1.77376 91 99 107 -0.12787 -0.551164 -0.824541
-0.868122 0.57303 1.77259 101 101 106 -0.272253 -0.894121 -0.355565
-0.856061 0.567 1.77351 94 101 109 0.01505 -0.835934 -0.548624
-0.850031 0.567 1.7734 93 108 119 -0.208587 -0.761729 -0.613401
-0.834955 0.567 1.77189 98 123 136 -0.059264 -0.880688 -0.469976
-0.895258 0.609212 1.77102 71 93 114 -0.271456 -0.10001 -0.957241
-0.847016 0.567 1.77247 93 108 119 -0.075522 -0.825042 -0.560002
-0.895258 0.612227 1.77098 71 93 114 -0.21837 0.0861 -0.97206
-0.895258 0.615242 1.7715 71 93 114 -0.205624 0.324744 -0.92318
-0.83194 0.567 1.77144 98 123 136 -0.145019 -0.793869 -0.590543
-0.889228 0.591121 1.77292 100 103 109 -0.579178 -0.548784 -0.602818
-0.828925 0.567 1.77086 96 121 136 -0.067696 -0.744661 -0.664001
-0.82591 0.567 1.77128 94 120 134 0.16435 -0.788579 -0.592565
-0.822895 0.567 1.77206 94 120 134 0.134188 -0.824298 -0.550024
-0.895258 0.594136 1.77339 106 104 112 -0.253399 -0.182935 -0.949907
-0.892243 0.594136 1.77224 106 104 112 -0.40877 -0.402408 -0.819131
-0.895258 0.597151 1.77338 103 107 116 -0.16771 -0.065419 -0.983663
-0.81988 0.567 1.77269 107 128 137 0.162305 -0.829395 -0.534565
-0.798774 0.582076 1.77229 100 123 133 0.521981 -0.309381 -0.794871
-0.813849 0.570015 1.77233 101 125 137 0.445135 -0.757222 -0.477986
-0.898273 0.615242 1.7723 97 75 85 -0.185125 0.174768 -0.96705
-0.795758 0.582076 1.77366 100 123 133 0.405368 -0.243819 -0.881039
-0.892243 0.597151 1.77195 103 107 116 -0.467687 -0.109459 -0.877091
-0.798774 0.585091 1.77127 101 124 134 0.60591 -0.15486 -0.780315
-0.807819 0.57303 1.77266 111 132 142 0.40593 -0.654459 -0.63789
-0.795758 0.585091 1.77354 101 124 134 0.51818 -0.26298 -0.813838
-0.798774 0.588106 1.77104 99 121 132 0.366529 -0.338924 -0.86648
-0.895258 0.600166 1.7732 93 100 111 -0.30685 -0.151379 -0.939642
-0.892243 0.600166 1.77141 93 100 111 -0.515207 -0.155005 -0.842932
-0.795758 0.588106 1.77137 99 121 132 0.675974 -0.455657 -0.579168
-0.895258 0.603182 1.77258 79 94 112 -0.294563 -0.202425 -0.933947
