ply
format ascii 1.0
element vertex 718
property float x
property float y
property float z
property uchar red
property uchar green
property uchar blue
property float nx
property float ny
property float nz
end_header
-0.976666 -0.440053 1.77129 84 101 107 -0.074355 -0.104097 -0.991784
-0.973651 -0.440053 1.77098 84 102 110 0.008189 -0.214073 -0.976783
-0.970636 -0.443068 1.77227 92 109 115 -0.024284 -0.348918 -0.936839
-0.970636 -0.440053 1.77104 92 110 117 -0.048185 -0.347717 -0.936361
-0.976666 -0.437038 1.77095 61 85 99 -0.095339 -0.090745 -0.9913
-0.988727 -0.444935 1.77678 101 105 103 -0.492586 -0.623718 -0.606906
-0.991062 -0.443068 1.77678 101 105 103 -0.478969 -0.593249 -0.647028
-0.9435 -0.458572 1.77678 116 110 103 -0.026009 -0.852824 -0.52155
-0.929554 -0.446083 1.77678 63 78 84 0.590842 0.235402 -0.771681
-0.987307 -0.446083 1.77678 94 101 103 -0.470026 -0.573733 -0.67075
-0.931439 -0.443484 1.77678 63 78 84 0.473412 0.389394 -0.790097
-0.944302 -0.458143 1.77678 116 110 103 -0.41972 -0.701745 -0.575664
-0.991742 -0.442213 1.77678 88 96 101 -0.435399 -0.428924 -0.791487
-0.947215 -0.403871 1.77678 68 97 109 0.427544 -0.101664 -0.89826
-0.964606 -0.455945 1.77678 109 107 101 -0.264938 -0.639342 -0.721838
-0.946515 -0.403081 1.77678 68 97 109 0.221859 -0.322054 -0.920358
-0.965858 -0.455128 1.77678 109 107 101 -0.303428 -0.492088 -0.815954
-0.9435 -0.401447 1.77678 68 97 109 0.446216 -0.385441 -0.807667
-1.00405 -0.409901 1.77678 60 86 109 0.290546 -0.02868 -0.956431
-1.00473 -0.406886 1.77678 60 86 109 0.286532 -0.013527 -0.957975
-0.940485 -0.458259 1.77678 120 112 105 0.129416 -0.891688 -0.433756
-0.958575 -0.391969 1.77678 42 86 110 0.193687 0.502985 -0.842313
-0.937469 -0.458151 1.77678 127 106 97 0.066973 -0.938942 -0.337494
-1.0038 -0.406109 1.77678 88 84 99 -0.001168 -0.220763 -0.975327
-0.985712 -0.447331 1.77678 118 103 97 -0.453097 -0.623635 -0.637011
-0.959143 -0.391811 1.77678 42 86 110 0.12138 0.400415 -0.908259
-0.982697 -0.449109 1.77678 107 107 104 -0.389953 -0.587398 -0.709155
-0.991742 -0.392044 1.77678 49 86 107 -0.192546 0.161532 -0.967901
-0.961591 -0.456618 1.77678 104 104 100 -0.104152 -0.629314 -0.77014
-0.991609 -0.391811 1.77678 49 86 107 -0.478043 0.179081 -0.859886
-0.943073 -0.400856 1.77678 72 99 109 0.606146 -0.191818 -0.771877
-0.982722 -0.449098 1.77678 107 107 104 -0.379011 -0.589026 -0.713722
-0.990523 -0.388795 1.77678 46 82 106 -0.541279 0.350619 -0.764253
-0.967621 -0.453658 1.77678 98 103 100 0.003778 -0.346286 -0.938121
-0.952545 -0.422769 1.77678 60 71 76 0.756795 0.33725 -0.559932
-0.988727 -0.386981 1.77678 45 82 106 -0.43758 0.513538 -0.738107
-0.942264 -0.397841 1.77678 67 97 109 0.559398 -0.004083 -0.828889
-0.979681 -0.451113 1.77678 107 107 104 -0.383604 -0.591047 -0.709585
-0.952943 -0.421962 1.77678 60 71 76 0.774572 0.161558 -0.611504
-0.987266 -0.38578 1.77678 46 82 106 -0.488649 0.442581 -0.751894
-0.9435 -0.396447 1.77678 65 95 107 0.188156 0.412776 -0.891187
-0.976666 -0.452877 1.77678 109 103 98 -0.311838 -0.628523 -0.712542
-0.9533 -0.418947 1.77678 68 85 89 0.720698 0.032438 -0.69249
-0.978049 -0.452113 1.77678 109 103 98 -0.325577 -0.626858 -0.707848
-0.949016 -0.409901 1.77678 86 100 103 0.46185 -0.344403 -0.817363
-0.947478 -0.406886 1.77678 86 100 103 0.420669 -0.179039 -0.889372
-0.973651 -0.454356 1.77678 109 103 98 -0.193031 -0.66866 -0.718076
-0.95556 -0.393187 1.77678 49 88 109 0.085946 0.491722 -0.866501
-0.958575 -0.456861 1.77678 109 107 103 0.055442 -0.615552 -0.786144
-0.970636 -0.454378 1.77678 110 106 100 0.043681 -0.59604 -0.801766
-0.961591 -0.391078 1.77678 42 87 115 0.221859 0.352364 -0.909186
-0.95556 -0.456086 1.77678 117 110 104 0.064625 -0.633321 -0.771186
-0.964147 -0.388795 1.77678 42 87 115 0.34104 0.142215 -0.929229
-0.95279 -0.415932 1.77678 83 96 97 0.660278 -0.123709 -0.740763
-0.952545 -0.456114 1.77678 107 110 106 -0.107418 -0.640091 -0.760752
-0.962625 -0.38578 1.77678 42 87 115 0.363069 0.113716 -0.924797
-0.952545 -0.392935 1.77678 52 88 106 -0.036008 0.422757 -0.905527
-0.94953 -0.457111 1.77678 107 110 106 -0.040945 -0.633936 -0.772301
-0.94953 -0.392689 1.77678 61 94 110 0.156557 0.370941 -0.915365
-0.946515 -0.395866 1.77678 63 97 112 0.112545 0.34577 -0.931545
-0.947552 -0.394826 1.77678 63 97 112 0.332206 0.209589 -0.919626
-0.985712 -0.383922 1.77678 48 79 102 -0.539354 0.522552 -0.660331
-0.984351 -0.382765 1.77678 51 80 101 -0.464853 0.70811 -0.531499
-0.994358 -0.440053 1.77678 101 102 105 -0.352163 -0.434282 -0.829084
-0.994757 -0.439798 1.77678 72 86 98 -0.406768 -0.270675 -0.872511
-0.996447 -0.437038 1.77678 72 86 98 -0.42503 -0.182573 -0.886576
-0.997087 -0.434022 1.77678 67 88 105 -0.467856 -0.103183 -0.877761
-1.00681 -0.421962 1.77678 129 94 91 0.370378 -0.119788 -0.921125
-0.997772 -0.430142 1.77678 99 105 113 -0.531603 -0.14956 -0.833684
-0.998377 -0.427992 1.77678 99 105 113 -0.682961 -0.283101 -0.673364
-0.997545 -0.431007 1.77678 80 103 117 -0.521909 -0.092943 -0.847923
-0.999789 -0.424977 1.77678 82 101 115 -0.756778 -0.277644 -0.591778
-1.00076 -0.421962 1.77678 82 101 115 -0.773748 -0.249545 -0.582273
-1.00682 -0.421945 1.77678 121 95 98 0.300897 -0.033993 -0.953051
-1.00735 -0.418947 1.77678 121 95 98 0.418227 0.044094 -0.907272
-1.00754 -0.415932 1.77678 98 95 105 0.415664 -0.052462 -0.908004
-1.00534 -0.412917 1.77678 64 89 110 0.212622 -0.070055 -0.97462
-1.00079 -0.421888 1.77678 65 95 114 -0.593734 -0.103575 -0.797967
-1.00169 -0.418947 1.77678 65 95 114 -0.270543 -0.128013 -0.954159
-1.00257 -0.415932 1.77678 62 95 115 -0.167455 0.045669 -0.984821
-1.00079 -0.414329 1.77678 55 94 116 -0.195484 0.206122 -0.958801
-0.99962 -0.412917 1.77678 55 94 116 -0.448886 0.123978 -0.884947
-0.999212 -0.409901 1.77678 55 94 116 -0.541348 -0.066432 -0.83817
-0.952545 -0.41495 1.77678 85 99 102 0.634123 -0.257761 -0.729004
-0.951868 -0.412917 1.77678 85 99 102 0.567076 -0.367701 -0.737035
-0.94953 -0.410346 1.77678 78 99 107 0.48519 -0.452296 -0.748344
-0.934454 -0.457414 1.77678 113 116 109 0.188689 -0.765493 -0.615156
-0.931439 -0.456639 1.77678 109 114 109 0.236752 -0.634997 -0.735342
-0.92863 -0.455128 1.77678 96 104 104 0.290575 -0.501046 -0.815181
-0.928424 -0.454682 1.77678 87 103 106 0.305152 -0.076613 -0.949217
-0.92805 -0.452113 1.77678 96 104 104 0.271059 -0.001205 -0.962562
-0.928424 -0.450752 1.77678 78 95 102 0.424292 0.078268 -0.902136
-0.928927 -0.449098 1.77678 78 95 102 0.643453 0.155943 -0.749433
-0.982697 -0.381822 1.77678 54 81 100 -0.343615 0.821825 -0.454458
-0.979681 -0.380776 1.77678 54 81 100 -0.1553 0.838623 -0.522105
-0.976666 -0.380728 1.77678 54 83 100 0.15094 0.799535 -0.581344
-0.973651 -0.381486 1.77678 54 83 100 0.058735 0.666146 -0.743505
-0.970636 -0.381395 1.77678 51 82 99 0.055588 0.634275 -0.771107
-1.00079 -0.407454 1.77678 47 85 109 -0.176664 -0.227139 -0.957704
-1.00096 -0.406886 1.77678 47 85 109 -0.121899 -0.227117 -0.966208
-1.00079 -0.398952 1.77678 45 82 107 -0.044284 0.204662 -0.97783
-0.937469 -0.440109 1.77678 62 69 76 0.316208 0.76564 -0.560185
-0.937672 -0.440053 1.77678 62 69 76 0.349242 0.80852 -0.47363
-0.997772 -0.398333 1.77678 44 81 106 -0.059879 0.21874 -0.973944
-0.931907 -0.443068 1.77678 60 78 85 0.528835 0.579522 -0.620071
-0.996745 -0.397841 1.77678 44 83 110 -0.179355 0.089068 -0.979744
-0.967621 -0.382007 1.77678 49 81 100 0.119665 0.616054 -0.778562
-0.964606 -0.383563 1.77678 45 82 106 0.347214 0.374992 -0.859548
-0.96594 -0.382765 1.77678 45 82 106 0.327423 0.52228 -0.787412
-0.996561 -0.394826 1.77678 46 84 108 -0.284974 0.094991 -0.953817
-0.994757 -0.392466 1.77678 46 84 108 -0.138859 0.257882 -0.956146
-0.946515 -0.456418 1.77678 107 112 107 -0.130174 -0.665831 -0.734659
-0.931439 -0.446083 1.77528 63 78 84 0.573296 0.301819 -0.761733
-0.997772 -0.415932 1.77534 68 94 111 -0.429936 0.098788 -0.897439
-0.973651 -0.452113 1.77515 92 100 102 -0.071887 -0.517304 -0.852777
-0.994757 -0.415932 1.77394 68 94 111 -0.382817 0.062691 -0.921695
-0.952545 -0.400856 1.77388 63 96 109 0.392409 0.269124 -0.879538
-0.970636 -0.452113 1.77544 92 100 102 0.16126 -0.443103 -0.881847
-0.997772 -0.412917 1.77552 68 94 111 -0.633516 0.023774 -0.773365
-0.9435 -0.400856 1.77645 72 99 109 0.129376 -0.154019 -0.979561
-0.970636 -0.449098 1.774 92 100 102 0.242479 -0.39719 -0.885124
-0.997772 -0.409901 1.77542 68 94 111 -0.646547 0.006922 -0.762843
-0.967621 -0.452113 1.77636 96 105 108 0.127155 -0.395438 -0.909648
-0.967621 -0.449098 1.77487 96 105 108 0.0252 -0.428406 -0.903235
-0.9435 -0.458143 1.77611 116 110 103 -0.199712 -0.657965 -0.726084
-0.95556 -0.418947 1.77446 66 90 99 0.715135 0.101741 -0.691543
-0.940485 -0.458143 1.77663 120 112 105 0.023888 -0.718057 -0.695574
-0.937469 -0.458143 1.77676 127 106 97 -0.00414 -0.771485 -0.636234
-1.0038 -0.403871 1.77631 88 84 99 -0.000999 -0.022971 -0.999736
-0.9435 -0.397841 1.77612 67 97 109 0.203702 0.05424 -0.977529
-0.988727 -0.443068 1.77559 101 105 103 -0.426248 -0.397513 -0.812586
-0.95556 -0.415932 1.7745 66 90 99 0.654789 -0.101529 -0.748961
-0.985712 -0.446083 1.77582 94 101 103 -0.3815 -0.514619 -0.76787
-0.985712 -0.443068 1.77402 94 101 103 -0.411195 -0.44022 -0.798201
-0.982697 -0.449098 1.77677 107 107 104 -0.421999 -0.551081 -0.71988
-0.991742 -0.440053 1.77608 88 96 101 -0.37799 -0.284622 -0.880973
-0.988727 -0.440053 1.77426 88 96 101 -0.441152 -0.236385 -0.865741
-0.952545 -0.412917 1.77592 85 99 102 0.64719 -0.282846 -0.707914
-0.979681 -0.449098 1.77499 107 107 104 -0.374983 -0.581306 -0.722129
-0.994757 -0.437038 1.77606 72 86 98 -0.290058 -0.195685 -0.936789
-0.952545 -0.409901 1.77473 75 98 105 0.53547 -0.243677 -0.808637
-0.982697 -0.446083 1.77446 103 106 106 -0.384265 -0.551052 -0.740731
-0.991742 -0.437038 1.77522 76 91 103 -0.362772 -0.177829 -0.914753
-0.94953 -0.409901 1.77652 78 99 107 0.480374 -0.160125 -0.862323
-0.994757 -0.434022 1.77566 67 88 105 -0.356142 -0.137191 -0.924306
-0.991742 -0.434022 1.77475 71 88 103 -0.274483 -0.114258 -0.95478
-0.988727 -0.437038 1.77399 59 85 103 -0.340657 -0.067079 -0.937792
-0.934454 -0.455128 1.7741 113 116 109 0.279507 -0.666026 -0.691581
-0.988727 -0.434022 1.77401 59 85 103 -0.222553 -0.020232 -0.974711
-0.94953 -0.403871 1.7754 64 96 109 0.54983 -0.127561 -0.825479
-0.94953 -0.400856 1.77524 64 96 109 0.404044 0.068917 -0.91214
-0.964606 -0.455128 1.7764 109 107 101 -0.211711 -0.29303 -0.932369
-0.931439 -0.455128 1.77562 109 114 109 0.44369 -0.392433 -0.80569
-0.95556 -0.397841 1.77427 60 95 109 0.165544 0.410261 -0.896817
-0.961591 -0.455128 1.77573 104 104 100 -0.171359 -0.289254 -0.94179
-0.931439 -0.452113 1.77397 100 111 109 0.617417 -0.094875 -0.780894
-0.964606 -0.452113 1.77598 98 103 100 -0.158628 -0.286072 -0.944987
-0.952545 -0.397841 1.77476 60 95 109 0.2465 0.309927 -0.91825
-0.931439 -0.449098 1.77457 74 93 101 0.611504 0.161558 -0.774572
-0.961591 -0.452113 1.77543 98 104 101 -0.267199 -0.346916 -0.899029
-0.94953 -0.397841 1.77592 62 96 109 0.21738 0.149693 -0.96454
-0.958575 -0.455128 1.77574 109 107 103 0.00947 -0.520825 -0.853611
-0.928424 -0.452113 1.77657 87 103 106 0.553669 -0.179528 -0.813155
-0.946515 -0.400856 1.7761 68 97 109 0.163575 -0.055309 -0.984979
-0.95556 -0.455128 1.77619 117 110 104 -0.009653 -0.616391 -0.787381
-0.946515 -0.397841 1.77605 66 96 110 0.05567 0.114748 -0.991834
-0.958575 -0.452113 1.77424 106 107 103 -0.195896 -0.356045 -0.913705
-0.964606 -0.449098 1.77456 98 106 107 -0.171862 -0.465644 -0.868124
-0.961591 -0.394826 1.7741 68 103 122 0.273111 0.504085 -0.819334
-0.964606 -0.391811 1.77494 68 103 122 0.408094 0.476381 -0.778794
-0.961591 -0.391811 1.77636 69 104 122 0.268347 0.54768 -0.792488
-0.952545 -0.455128 1.77582 107 110 106 -0.080034 -0.676648 -0.731944
-1.00079 -0.406886 1.77657 47 85 109 -0.424995 -0.195586 -0.883813
-0.94953 -0.455128 1.77552 107 110 106 -0.064127 -0.585689 -0.807995
-0.997772 -0.406886 1.77524 47 85 109 -0.39294 -0.014265 -0.919454
-0.958575 -0.394826 1.77506 49 88 109 0.202592 0.484719 -0.850884
-1.00079 -0.403871 1.77598 47 85 109 -0.179147 -0.02196 -0.983577
-0.997772 -0.427992 1.77601 99 105 113 -0.45881 -0.4199 -0.783057
-0.95556 -0.394826 1.77568 55 90 108 0.120407 0.437716 -0.891014
-0.997772 -0.403871 1.77542 46 86 110 -0.159437 0.151904 -0.975451
-0.967621 -0.388795 1.77475 44 87 114 0.33777 0.233394 -0.911833
-0.994757 -0.403871 1.77485 53 82 105 -0.230877 0.293199 -0.927756
-0.964606 -0.388795 1.77657 44 87 114 0.486117 0.088769 -0.869374
-0.994757 -0.431007 1.7751 80 103 117 -0.3746 -0.132294 -0.9177
-0.967621 -0.38578 1.77451 55 96 121 0.241992 0.20918 -0.947462
-0.94953 -0.452113 1.77379 101 109 106 0.001334 -0.500299 -0.865851
-0.991742 -0.431007 1.77442 77 103 119 -0.175423 -0.031367 -0.983993
-0.946515 -0.455128 1.7755 107 112 107 -0.248196 -0.65922 -0.709808
-0.964606 -0.38578 1.77602 55 96 121 0.39613 0.103518 -0.912341
-0.994757 -0.427992 1.77465 86 103 114 -0.21371 -0.232766 -0.948761
-0.991742 -0.403871 1.77415 53 82 105 -0.257148 0.342374 -0.90369
-0.991742 -0.427992 1.77478 80 103 117 -0.13868 -0.13868 -0.980579
-0.952545 -0.394826 1.77581 58 93 110 0.069759 0.338267 -0.938461
-0.997772 -0.424977 1.77401 82 101 115 -0.451358 -0.419002 -0.787854
-0.988727 -0.431007 1.77403 73 100 118 -0.153567 -0.042722 -0.987214
-0.94953 -0.394826 1.77583 58 92 109 0.186626 0.160884 -0.969168
-0.994757 -0.424977 1.77395 73 100 114 -0.049037 -0.277876 -0.959364
-0.985712 -0.38578 1.77567 48 79 102 -0.56965 0.389069 -0.723964
-0.982697 -0.382765 1.77534 51 80 101 -0.413951 0.663319 -0.62342
-0.979681 -0.38578 1.77391 53 81 100 -0.023017 0.003002 -0.999731
-0.979681 -0.382765 1.774 53 81 100 -0.132336 0.498806 -0.856551
-0.973651 -0.38578 1.77443 55 88 106 0.150737 0.333282 -0.9307
-1.00079 -0.418947 1.7764 65 95 114 -0.545703 0.072288 -0.834855
-0.973651 -0.382765 1.77585 55 88 106 0.270719 0.481107 -0.833815
-0.997772 -0.418947 1.77466 65 95 114 -0.400417 0.226066 -0.888009
-1.00079 -0.415932 1.77641 62 95 115 -0.353087 0.115878 -0.928387
-0.970636 -0.38578 1.77477 50 82 101 0.068292 0.297652 -0.952229
-0.970636 -0.382765 1.77603 50 82 101 0.025474 0.462553 -0.886225
-0.967621 -0.382765 1.77624 44 78 100 0.135606 0.508885 -0.850086
-1.00079 -0.400856 1.77641 56 81 103 -0.090989 0.168633 -0.98147
-0.997772 -0.400856 1.77619 43 82 108 -0.08771 0.247877 -0.964813
-0.994757 -0.400856 1.77596 44 83 110 -0.196154 0.214835 -0.95675
-0.991742 -0.400856 1.77515 44 83 110 -0.222961 0.206746 -0.952651
-0.994757 -0.397841 1.77638 44 83 110 -0.267198 0.008463 -0.963605
-0.991742 -0.397841 1.77539 44 83 110 -0.224228 0.102613 -0.969119
-0.994757 -0.394826 1.77602 46 84 108 -0.164168 0.1222 -0.978834
-0.991742 -0.394826 1.77608 46 87 112 -0.109172 0.240179 -0.96457
-0.985712 -0.403871 1.77447 63 88 104 -0.026192 0.049241 -0.998443
-0.982697 -0.403871 1.77395 69 87 101 -0.16701 0.141896 -0.975691
-0.988727 -0.400856 1.77466 63 88 104 -0.182826 0.115666 -0.976318
-0.985712 -0.400856 1.77428 63 88 104 -0.046861 -0.021869 -0.998662
-0.988727 -0.397841 1.77466 63 88 104 -0.267184 0.142233 -0.953091
-0.988727 -0.394826 1.77554 47 86 107 -0.373645 0.131956 -0.918138
-0.985712 -0.394826 1.77403 51 87 108 -0.348522 0.075535 -0.934252
-0.976666 -0.452113 1.77613 109 103 98 -0.238931 -0.579369 -0.779259
-0.988727 -0.391811 1.77516 49 86 107 -0.373804 0.054155 -0.925925
-0.985712 -0.391811 1.77457 49 86 107 -0.17507 0.120438 -0.977162
-0.982697 -0.391811 1.77422 51 89 109 -0.143001 0.104547 -0.984185
-0.988727 -0.388795 1.77553 46 82 106 -0.376415 0.294783 -0.878302
-0.985712 -0.388795 1.77472 45 82 106 -0.329328 0.165359 -0.929623
-0.982697 -0.388795 1.7742 49 85 107 -0.127153 -0.032632 -0.991346
-0.979681 -0.388795 1.77402 55 90 109 -0.038227 -0.01963 -0.999076
-0.970636 -0.388795 1.77379 54 88 108 0.260877 0.298351 -0.918112
-0.952545 -0.406886 1.77438 70 98 109 0.482511 -0.182612 -0.856642
-0.94953 -0.406886 1.77595 74 98 106 0.458897 -0.168604 -0.872345
-0.989887 -0.446083 1.77979 94 101 103 -0.529212 -0.721653 -0.446264
-0.991742 -0.444911 1.77979 94 101 103 -0.413791 -0.723722 -0.552271
-0.925409 -0.442461 1.77979 58 70 75 0.257206 0.613822 -0.74637
-0.9435 -0.389639 1.77979 60 91 107 0.214526 0.313975 -0.924877
-0.966001 -0.458143 1.77979 104 104 100 -0.376831 -0.663156 -0.646701
-0.922394 -0.443838 1.77979 56 70 77 0.357521 0.582808 -0.729735
-0.944835 -0.388795 1.77979 60 91 107 0.259368 0.366079 -0.893708
-0.946515 -0.387562 1.77979 58 90 106 0.296688 0.416592 -0.859318
-0.924241 -0.443068 1.77979 56 70 77 0.342264 0.58558 -0.734814
-0.948076 -0.38578 1.77979 58 90 106 0.47767 0.371521 -0.796117
-0.967621 -0.45731 1.77979 104 104 100 -0.229828 -0.736388 -0.636327
-0.99103 -0.38578 1.77979 45 76 100 -0.487006 0.467196 -0.737938
-0.951035 -0.421962 1.77979 65 68 71 0.895554 0.180847 -0.406544
-0.988727 -0.383218 1.77979 45 76 100 -0.405931 0.434812 -0.80384
-0.919379 -0.446049 1.77979 66 84 91 0.332647 0.598765 -0.728578
-0.987954 -0.382765 1.77979 48 77 101 -0.36879 0.588424 -0.719549
-0.950981 -0.418947 1.77979 88 92 90 0.838709 -0.171317 -0.516931
-0.985712 -0.381798 1.77979 48 77 100 -0.279999 0.702398 -0.654398
-0.9435 -0.40868 1.77979 126 135 130 0.552085 -0.538579 -0.636502
-0.919379 -0.453952 1.77979 96 108 109 0.377346 -0.172298 -0.909903
-0.949604 -0.415932 1.77979 89 98 98 0.656231 -0.301511 -0.691702
-0.941835 -0.406886 1.77979 126 135 130 0.509413 -0.496052 -0.703158
-0.918776 -0.452113 1.77979 96 108 109 0.411017 -0.080565 -0.908061
-0.94953 -0.415791 1.77979 94 99 97 0.682091 -0.366521 -0.632783
-0.91843 -0.449098 1.77979 82 99 104 0.257063 0.023148 -0.966118
-0.940485 -0.405824 1.77979 89 107 109 0.360857 -0.446699 -0.818683
-0.938213 -0.403871 1.77979 89 107 111 0.400554 -0.37228 -0.837236
-0.982697 -0.380302 1.77979 54 81 100 -0.36472 0.769965 -0.523576
-0.919343 -0.446083 1.77979 82 99 104 0.345103 0.106914 -0.932455
-0.937469 -0.402511 1.77979 76 101 109 0.329408 -0.264991 -0.906239
-0.947701 -0.412917 1.77979 82 87 85 0.657937 -0.503128 -0.56034
-0.981256 -0.37975 1.77979 56 83 101 -0.211632 0.857034 -0.469793
-0.946515 -0.411672 1.77979 82 87 85 0.545519 -0.548896 -0.633342
-0.944772 -0.409901 1.77979 82 87 85 0.563083 -0.549555 -0.617193
-0.979681 -0.37938 1.77979 59 71 87 -0.186376 0.879049 -0.438791
-0.991742 -0.38637 1.77979 43 77 100 -0.012266 0.541061 -0.840894
-0.924638 -0.458143 1.77979 111 114 109 0.264866 -0.635996 -0.724814
-0.922394 -0.456793 1.77979 111 114 109 0.277277 -0.398491 -0.874255
-0.920408 -0.455128 1.77979 101 109 107 0.279795 -0.291393 -0.91477
-0.976666 -0.378901 1.77979 51 74 89 -0.109835 0.871546 -0.477853
-0.946515 -0.460173 1.77979 114 111 104 -0.015245 -0.611179 -0.791345
-0.973651 -0.378606 1.77979 51 74 89 -0.017502 0.873769 -0.486026
-0.970636 -0.37882 1.77979 51 78 95 -0.06974 0.824065 -0.562186
-0.9435 -0.460399 1.77979 116 110 103 0.061006 -0.810103 -0.583104
-0.967621 -0.378044 1.77979 51 78 95 0.015361 0.730365 -0.682884
-0.935929 -0.400856 1.77979 73 98 108 0.292664 -0.310312 -0.904464
-0.934454 -0.399752 1.77979 71 97 108 0.3509 -0.173336 -0.920231
-0.964606 -0.380201 1.77979 47 75 96 0.247797 0.636065 -0.730765
-0.934134 -0.397841 1.77979 73 98 108 0.452981 0.001313 -0.891519
-0.965303 -0.37975 1.77979 47 75 96 0.370542 0.553364 -0.745981
-0.937469 -0.39486 1.77979 69 96 108 0.211827 0.267207 -0.940069
-0.93751 -0.394826 1.77979 69 96 108 0.326331 0.30249 -0.895549
-0.940485 -0.392193 1.77979 65 95 107 0.308242 0.347336 -0.885632
-0.958575 -0.382225 1.77979 48 81 100 0.110386 0.355689 -0.928063
-0.940892 -0.391811 1.77979 65 95 107 0.273213 0.3112 -0.910225
-0.934454 -0.397132 1.77979 63 94 106 0.353873 0.305686 -0.883929
-0.953466 -0.382765 1.77979 53 85 102 -0.101897 0.365472 -0.925228
-0.94953 -0.384035 1.77979 54 84 101 0.392817 0.411901 -0.822212
-0.951446 -0.382765 1.77979 54 84 101 0.248344 0.422938 -0.871463
-0.940485 -0.459449 1.77979 127 106 97 0.200727 -0.905439 -0.374017
-0.952545 -0.382357 1.77979 54 84 101 0.001305 0.437266 -0.899331
-0.937469 -0.459131 1.77979 127 106 97 0.072723 -0.958155 -0.276857
-0.994757 -0.443188 1.77979 101 102 105 -0.350894 -0.621816 -0.700155
-0.99501 -0.443068 1.77979 101 102 105 -0.239633 -0.612396 -0.753357
-0.928424 -0.459121 1.77979 135 97 84 0.053558 -0.877526 -0.476528
-0.925409 -0.458429 1.77979 135 97 84 0.20106 -0.790425 -0.578622
-0.982697 -0.45317 1.77979 118 103 97 -0.387258 -0.614669 -0.687177
-0.984007 -0.452113 1.77979 118 103 97 -0.4781 -0.568687 -0.66934
-0.979681 -0.454853 1.77979 118 103 97 -0.34366 -0.623799 -0.701978
-0.985712 -0.450368 1.77979 118 103 97 -0.583294 -0.535954 -0.610345
-0.986836 -0.449098 1.77979 118 103 97 -0.635344 -0.551081 -0.540969
-0.988727 -0.447115 1.77979 118 103 97 -0.601625 -0.625218 -0.497141
-0.976666 -0.455825 1.77979 109 103 98 -0.19949 -0.853455 -0.481475
-0.978946 -0.455128 1.77979 109 103 98 -0.275566 -0.718383 -0.63874
-0.973651 -0.456372 1.77979 109 103 98 -0.13638 -0.837345 -0.52939
-0.970636 -0.456681 1.77979 104 103 99 -0.106889 -0.789225 -0.604731
-0.988727 -0.446083 1.77828 94 101 103 -0.556125 -0.656933 -0.509081
-0.928424 -0.446083 1.7778 64 79 85 0.174156 0.286603 -0.942087
-0.991742 -0.443068 1.77728 94 101 103 -0.463367 -0.660758 -0.5905
-0.931439 -0.443068 1.77713 64 79 85 0.30417 0.729043 -0.613169
-0.946515 -0.403871 1.77702 68 97 109 0.343261 -0.15148 -0.926944
-0.928424 -0.443068 1.7785 64 79 85 0.312032 0.468832 -0.826337
-0.9435 -0.406886 1.77865 126 135 130 0.447932 -0.292938 -0.844716
-0.9435 -0.403871 1.77787 72 100 110 0.375552 -0.267824 -0.88726
-0.940485 -0.403871 1.77891 89 107 109 0.338815 -0.133057 -0.931397
-0.958575 -0.391811 1.77686 49 88 109 0.185335 0.310749 -0.932248
-0.95556 -0.391811 1.77747 49 88 109 0.071703 0.252847 -0.964845
-0.922394 -0.446083 1.77843 56 70 77 0.34377 0.307742 -0.887196
-0.919379 -0.446083 1.77978 66 84 91 0.358599 0.219224 -0.907385
-0.964606 -0.458143 1.77899 104 104 100 -0.206302 -0.702669 -0.680953
-0.967621 -0.455128 1.77746 104 104 100 -0.114097 -0.689027 -0.715699
-0.961591 -0.388795 1.77746 41 91 122 0.224228 0.102613 -0.969119
-0.940485 -0.400856 1.77908 76 102 109 0.406615 -0.168106 -0.898001
-0.919379 -0.452113 1.7795 96 108 109 0.379116 -0.019409 -0.925146
-0.961591 -0.38578 1.77723 28 71 102 0.38339 0.169604 -0.90788
-0.961591 -0.458143 1.77833 112 102 95 -0.107811 -0.701507 -0.704461
-0.937469 -0.400856 1.77946 76 101 109 0.153148 -0.145677 -0.977407
-0.958575 -0.388795 1.77763 40 78 100 0.110586 0.261504 -0.958847
-0.940485 -0.397841 1.77812 69 97 109 0.434482 -0.072642 -0.897746
-0.95556 -0.388795 1.77793 45 83 106 -0.022623 0.220278 -0.975175
-0.937469 -0.397841 1.77909 72 99 109 0.240582 -0.003555 -0.970622
-0.958575 -0.38578 1.77849 40 78 100 0.246683 0.266417 -0.931756
-0.934454 -0.397841 1.77968 71 97 108 0.188542 0.116122 -0.975176
-0.9435 -0.394826 1.77773 60 93 107 0.198857 0.38465 -0.901388
-0.940485 -0.394826 1.77859 60 93 107 0.350002 0.298929 -0.887773
-0.952545 -0.418947 1.77769 81 92 93 0.791774 -0.026532 -0.610238
-0.952545 -0.458143 1.77867 112 112 106 -0.082988 -0.706122 -0.70321
-0.9435 -0.391811 1.77878 65 95 107 0.257991 0.349394 -0.900758
-0.952545 -0.391811 1.77725 58 92 109 -0.038424 0.266487 -0.963072
-0.94953 -0.458143 1.77776 107 110 106 -0.067806 -0.708359 -0.702588
-0.952545 -0.415932 1.77701 81 92 93 0.705664 -0.226876 -0.671241
-0.94953 -0.391811 1.77712 58 92 109 0.136024 0.30033 -0.944087
-0.946515 -0.458143 1.77823 106 111 107 -0.089279 -0.683495 -0.724475
-0.946515 -0.394826 1.77717 62 94 109 0.225314 0.296167 -0.92818
-0.94953 -0.412917 1.77853 94 99 97 0.541409 -0.413051 -0.732301
-0.946515 -0.391811 1.778 62 94 110 0.271196 0.321037 -0.907407
-0.946515 -0.409901 1.77837 82 87 85 0.485905 -0.430279 -0.76076
-0.919379 -0.449098 1.77968 82 99 104 0.437643 0.041744 -0.898179
-0.952545 -0.388795 1.77796 47 81 101 0.034273 0.197364 -0.979731
-0.994757 -0.443068 1.77966 101 102 105 -0.453097 -0.623635 -0.637011
-0.94953 -0.388795 1.77796 55 90 106 0.241857 0.299101 -0.923062
-0.994757 -0.440053 1.77691 106 104 105 -0.344358 -0.621803 -0.703405
-0.934454 -0.458143 1.77799 108 114 110 0.089703 -0.903935 -0.418156
-0.952545 -0.38578 1.77819 52 87 104 0.003697 0.304371 -0.952546
-1.00079 -0.437038 1.77835 70 82 96 -0.173867 -0.073144 -0.982049
-0.931439 -0.458143 1.77824 108 110 108 0.064207 -0.794739 -0.603545
-0.997772 -0.437038 1.77742 69 77 90 -0.278614 -0.18254 -0.942896
-1.0038 -0.409901 1.77698 113 81 89 0.176244 -0.126246 -0.976217
-1.00079 -0.434022 1.77832 70 82 96 -0.261221 0.040855 -0.964414
-1.0038 -0.406886 1.77701 113 81 89 0.028064 -0.038458 -0.998866
-0.997772 -0.434022 1.77714 69 85 102 -0.369191 -0.0569 -0.92761
-0.928424 -0.458143 1.77868 102 105 104 0.207573 -0.582741 -0.785701
-1.0038 -0.431007 1.77837 129 97 95 0.388993 0.030124 -0.920748
-0.94953 -0.38578 1.77888 50 82 100 0.23507 0.271667 -0.933241
-1.0038 -0.427992 1.77852 126 104 101 0.250154 -0.020544 -0.967988
-1.00079 -0.409901 1.77777 48 85 109 -0.03112 -0.071899 -0.996926
-1.00079 -0.397841 1.77701 70 80 100 -0.021641 0.156043 -0.987513
-0.997772 -0.397841 1.77687 52 81 105 -0.116878 0.131337 -0.984424
-0.946515 -0.388795 1.77918 57 90 106 0.316826 0.334844 -0.887412
-0.925409 -0.458143 1.77951 135 97 84 0.239297 -0.520278 -0.819785
-0.982697 -0.452113 1.77914 118 103 97 -0.384726 -0.558262 -0.735072
-1.00079 -0.394826 1.77753 66 79 101 -0.003207 0.09728 -0.995252
-0.988727 -0.38578 1.77772 45 76 100 -0.508513 0.545435 -0.66627
-0.979681 -0.452113 1.77758 118 103 97 -0.353473 -0.591294 -0.724864
-1.00682 -0.424977 1.77717 129 94 91 0.399897 -0.0465 -0.91538
-0.928424 -0.455128 1.77684 102 105 104 0.241908 -0.46708 -0.850481
-0.997772 -0.394826 1.77728 82 77 92 -0.141524 0.089196 -0.985908
-0.985712 -0.449098 1.77859 118 103 97 -0.481552 -0.592293 -0.645985
-1.0038 -0.424977 1.77848 119 103 102 0.078297 -0.089644 -0.992892
-0.925409 -0.455128 1.77769 103 107 104 0.309065 -0.348263 -0.884981
-0.925409 -0.452113 1.77742 94 103 102 0.26091 -0.141713 -0.954905
-0.976666 -0.455128 1.77903 109 103 98 -0.261573 -0.714967 -0.648384
-1.0038 -0.421962 1.77799 90 96 106 0.053328 -0.178944 -0.982413
-0.922394 -0.455128 1.77914 111 114 109 0.334491 -0.255616 -0.90707
-0.985712 -0.382765 1.77805 48 77 101 -0.489833 0.637961 -0.594196
-0.973651 -0.455128 1.77787 109 103 98 -0.109205 -0.816855 -0.566411
-1.00079 -0.431007 1.77876 106 106 112 -0.171657 0.038535 -0.984403
-0.997772 -0.391811 1.77724 45 77 99 -0.105605 0.156586 -0.982002
-0.997772 -0.431007 1.77696 87 105 116 -0.462431 -0.001317 -0.886654
-1.00079 -0.427992 1.77867 98 105 113 -0.344587 -0.160435 -0.924944
-0.994757 -0.391811 1.77709 43 80 105 -0.063167 0.305523 -0.950087
-0.970636 -0.455128 1.77765 104 103 99 -0.05229 -0.804132 -0.592146
-0.922394 -0.452113 1.77813 98 107 106 0.355577 -0.161626 -0.920566
-0.991742 -0.391811 1.77683 46 85 109 -0.176952 0.283946 -0.942371
-1.00079 -0.424977 1.77772 82 101 115 -0.3475 -0.231182 -0.908735
-1.00079 -0.421962 1.77679 82 101 115 -0.372545 -0.220605 -0.901412
-0.997772 -0.388795 1.77813 84 73 88 0.042312 0.324394 -0.944975
-1.00682 -0.418947 1.77695 98 95 105 0.112567 0.03455 -0.993043
-0.928424 -0.449098 1.77712 79 96 104 0.005846 0.216308 -0.976308
-0.994757 -0.388795 1.77796 41 74 99 -0.032921 0.401638 -0.915207
-0.925409 -0.449098 1.77679 84 99 103 0.100763 0.09613 -0.990255
-1.0038 -0.418947 1.77718 81 98 111 0.050092 -0.096844 -0.994038
-0.991742 -0.388795 1.77772 48 70 91 -0.267848 0.481508 -0.83451
-1.00682 -0.415932 1.77698 110 87 94 0.071075 -0.051393 -0.996146
-0.922394 -0.449098 1.77776 81 99 104 0.36896 0.045956 -0.928308
-1.0038 -0.415932 1.77693 75 99 116 -0.023905 -0.042613 -0.998806
-0.979681 -0.37975 1.77892 56 83 101 -0.144621 0.892068 -0.428135
-0.976666 -0.37975 1.77819 52 78 95 -0.006805 0.828877 -0.55939
-1.0038 -0.412917 1.77717 98 83 94 0.099118 0.074053 -0.992316
-0.973651 -0.37975 1.77839 54 83 100 0.041184 0.737059 -0.674572
-1.00079 -0.412917 1.77719 55 94 116 -0.196153 0.188254 -0.962333
-0.946515 -0.406886 1.77717 86 102 103 0.411928 -0.184858 -0.892268
-0.970636 -0.37975 1.77851 49 81 100 0.009724 0.701495 -0.712608
-0.967621 -0.37975 1.77856 49 81 100 0.211839 0.607685 -0.765404
-0.961591 -0.382765 1.77858 37 74 100 0.31249 0.46638 -0.82755
-0.958575 -0.382765 1.77964 43 78 100 0.26214 0.390963 -0.882287
-0.952545 -0.382765 1.77964 53 85 102 0.001299 0.424733 -0.905318
-0.913348 -0.443933 1.78281 70 85 92 0.196163 0.54287 -0.816586
-0.91622 -0.443068 1.78281 70 85 92 0.165921 0.683471 -0.710871
-0.919379 -0.442603 1.78281 68 81 88 0.228817 0.850106 -0.474302
-0.985712 -0.374156 1.78281 58 65 81 0.28312 0.128932 -0.950379
-0.916364 -0.443015 1.78281 68 81 88 0.042415 0.871557 -0.488455
-0.9435 -0.46271 1.78281 137 100 91 0.490725 -0.551019 -0.674957
-0.910333 -0.444691 1.78281 80 99 106 0.263013 0.427206 -0.865054
-0.98623 -0.37372 1.78281 58 65 81 0.127657 0.225656 -0.965807
-0.982697 -0.378042 1.78281 52 72 89 -0.006931 0.694504 -0.719456
-0.98472 -0.376735 1.78281 52 72 89 0.312686 0.194903 -0.929645
-0.979681 -0.377964 1.78281 52 73 92 -0.133738 0.833288 -0.53642
-0.994757 -0.446966 1.78281 148 108 97 0.145669 -0.306312 -0.94072
-0.949891 -0.418947 1.78281 76 73 68 0.959995 -0.077768 -0.269002
-0.976666 -0.377164 1.78281 49 71 89 -0.072821 0.897213 -0.435553
-0.94953 -0.418091 1.78281 87 89 82 0.852159 -0.470731 -0.228554
-0.948117 -0.415932 1.78281 91 93 85 0.766558 -0.57213 -0.291643
-0.910207 -0.446083 1.78281 80 99 106 0.399807 -0.001286 -0.916599
-0.940485 -0.461171 1.78281 127 103 93 0.238422 -0.466213 -0.851939
-0.946515 -0.413837 1.78281 101 104 95 0.744881 -0.622564 -0.23993
-0.945603 -0.412917 1.78281 91 93 85 0.633056 -0.716395 -0.293289
-0.9435 -0.41095 1.78281 108 107 97 0.603786 -0.702497 -0.376749
-0.973651 -0.377422 1.78281 51 71 88 -0.040275 0.93412 -0.35468
-0.970636 -0.376899 1.78281 50 72 86 -0.064996 0.880908 -0.468803
-0.967621 -0.462103 1.78281 128 100 90 -0.238799 -0.134406 -0.961722
-0.969936 -0.376735 1.78281 50 72 86 -0.205372 0.826054 -0.524841
-0.937469 -0.407033 1.78281 114 123 121 0.406542 -0.672039 -0.61894
-0.967621 -0.376184 1.78281 50 72 86 -0.259587 0.778761 -0.571092
-0.940457 -0.461159 1.78281 127 103 93 0.392167 -0.546408 -0.74003
-0.937198 -0.406886 1.78281 101 114 115 0.293963 -0.634511 -0.714829
-0.937469 -0.459789 1.78281 127 103 93 0.182326 -0.888292 -0.421538
-0.934454 -0.405197 1.78281 101 114 115 0.306758 -0.535634 -0.786763
-0.931439 -0.403992 1.78281 90 108 113 0.222476 -0.535476 -0.814721
-0.931286 -0.403871 1.78281 86 107 114 0.278846 -0.38737 -0.878743
-0.929648 -0.400856 1.78281 68 97 111 0.44934 -0.136381 -0.882889
-0.928424 -0.460415 1.78281 109 109 104 -0.042312 -0.944975 -0.324394
-0.929347 -0.397841 1.78281 62 92 107 0.592232 0.04947 -0.804248
-0.931439 -0.393033 1.78281 61 92 106 0.439456 0.468862 -0.76619
-0.933584 -0.391811 1.78281 61 92 106 0.311505 0.494929 -0.811178
-0.937469 -0.38746 1.78281 59 90 107 0.444939 0.564922 -0.694904
-0.939662 -0.38578 1.78281 59 90 107 0.438514 0.524562 -0.729753
-0.934454 -0.391204 1.78281 60 91 107 0.47962 0.389186 -0.786447
-0.964606 -0.375286 1.78281 55 81 97 -0.107001 0.611227 -0.784189
-0.925409 -0.460424 1.78281 114 114 108 0.042546 -0.866018 -0.4982
-0.961591 -0.37469 1.78281 52 77 93 0.022986 0.49353 -0.869425
-0.958575 -0.37517 1.78281 51 74 91 0.092452 0.510618 -0.854823
-0.936149 -0.388795 1.78281 60 91 107 0.564169 0.371207 -0.737508
-0.95556 -0.375994 1.78281 52 79 96 0.163939 0.579051 -0.798639
-0.9435 -0.382935 1.78281 56 86 101 0.348324 0.502422 -0.791355
-0.922394 -0.460713 1.78281 113 112 105 -0.01524 -0.782802 -0.622085
-0.930161 -0.394826 1.78281 58 90 105 0.617751 0.246786 -0.746646
-0.944062 -0.382765 1.78281 56 86 101 0.187803 0.453982 -0.870994
-0.919379 -0.460452 1.78281 117 116 110 0.143272 -0.707312 -0.692231
-0.946515 -0.381235 1.78281 56 86 101 0.370195 0.385816 -0.845045
-0.940485 -0.385121 1.78281 56 88 103 0.363812 0.522272 -0.77128
-0.968541 -0.461159 1.78281 128 100 90 -0.293169 -0.337814 -0.89439
-0.947833 -0.37975 1.78281 56 86 101 0.367526 0.522956 -0.769053
-0.916364 -0.459515 1.78281 113 108 101 0.308118 -0.675923 -0.669471
-0.970636 -0.45955 1.78281 128 100 90 -0.311323 -0.461509 -0.830715
-0.952545 -0.37746 1.78281 50 80 97 0.325581 0.604187 -0.727293
-0.914428 -0.458143 1.78281 113 108 101 0.517412 -0.504017 -0.691558
-0.973011 -0.458143 1.78281 128 100 90 -0.26181 -0.668012 -0.696574
-0.953792 -0.376735 1.78281 50 80 97 0.216273 0.538382 -0.814476
-0.94953 -0.379013 1.78281 54 82 100 0.293691 0.656391 -0.694908
-0.982697 -0.455986 1.78281 125 106 94 -0.171617 -0.779111 -0.602938
-0.98457 -0.455128 1.78281 125 106 94 -0.314751 -0.627887 -0.711821
-0.979681 -0.456528 1.78281 125 106 94 -0.221827 -0.827644 -0.515556
-0.988727 -0.449907 1.78281 107 105 102 -0.494163 -0.362171 -0.790339
-0.989187 -0.449098 1.78281 107 105 102 -0.456564 -0.450018 -0.767485
-0.976666 -0.457396 1.78281 124 103 94 -0.211328 -0.82859 -0.518439
-0.973651 -0.457942 1.78281 124 103 94 -0.166809 -0.854712 -0.49157
-0.913641 -0.455128 1.78281 108 111 106 0.522105 -0.1553 -0.838623
-0.913348 -0.454029 1.78281 101 111 112 0.533723 -0.149324 -0.832371
-0.912787 -0.452113 1.78281 96 106 106 0.538569 -0.20902 -0.816244
-0.911483 -0.449098 1.78281 87 104 108 0.489501 -0.203331 -0.847966
-0.910333 -0.44666 1.78281 83 101 107 0.379969 -0.16935 -0.909365
-0.916364 -0.446083 1.7809 70 86 93 0.255114 0.358339 -0.898059
-0.991742 -0.38578 1.78009 47 74 94 0.036655 0.304617 -0.951769
-0.919379 -0.443068 1.78205 70 86 93 0.253309 0.602592 -0.756781
-0.916364 -0.443068 1.78274 70 86 93 0.187546 0.590085 -0.785255
-0.913348 -0.446083 1.78139 70 85 92 0.324151 0.128847 -0.93719
-0.9435 -0.388795 1.78016 59 90 103 0.190159 0.402092 -0.895635
-0.910333 -0.446083 1.78274 80 99 106 0.275677 0.304849 -0.91163
-0.946515 -0.38578 1.781 59 90 103 0.292576 0.444282 -0.846767
-0.991742 -0.382765 1.78079 49 69 90 0.01762 0.205564 -0.978485
-0.9435 -0.38578 1.78117 59 90 103 0.215525 0.432537 -0.875478
-0.94953 -0.415932 1.77988 87 89 82 0.827205 -0.445903 -0.341911
-0.937469 -0.406886 1.7827 114 123 121 0.4303 -0.566534 -0.702767
-0.994757 -0.446083 1.78235 148 108 97 -0.123533 -0.644457 -0.754595
-0.988727 -0.382765 1.78012 45 72 93 -0.22542 0.467481 -0.854779
-0.946515 -0.412917 1.7812 101 104 95 0.638691 -0.618575 -0.457645
-0.937469 -0.403871 1.78025 96 110 111 0.423862 -0.486051 -0.764261
-0.997772 -0.443068 1.78036 134 106 99 0.023379 -0.554231 -0.832034
-0.922394 -0.458143 1.78052 81 96 100 0.089144 -0.659084 -0.746767
-0.988727 -0.37975 1.78168 51 71 90 0.028441 0.275753 -0.960808
-0.934454 -0.403871 1.78211 101 114 115 0.348484 -0.404741 -0.845425
-0.985712 -0.37975 1.78159 51 74 94 -0.054779 0.54639 -0.835738
-0.931439 -0.403871 1.78274 90 108 113 0.324503 -0.31254 -0.892758
-0.982697 -0.37975 1.78047 59 71 87 -0.235127 0.777011 -0.583926
-0.919379 -0.458143 1.78094 81 96 100 0.230446 -0.411829 -0.881641
-0.934454 -0.400856 1.78039 83 104 112 0.343511 -0.460654 -0.818412
-0.919379 -0.455128 1.78009 81 96 100 0.323461 -0.250936 -0.912362
-0.967621 -0.461159 1.7826 128 100 90 -0.169934 -0.428466 -0.887434
-0.988727 -0.376735 1.78174 87 65 72 0.128061 0.140257 -0.981799
-0.970636 -0.458143 1.78186 128 100 90 -0.188689 -0.765493 -0.615156
-0.931439 -0.400856 1.78168 80 102 112 0.434079 -0.26654 -0.860542
-0.985712 -0.376735 1.78231 56 71 89 0.174907 0.159587 -0.971565
-0.931439 -0.397841 1.78121 68 97 110 0.507409 0.080564 -0.857931
-0.967621 -0.458143 1.78089 128 100 90 -0.280599 -0.565955 -0.775216
-0.937469 -0.394826 1.7798 63 95 109 0.354347 0.394933 -0.847624
-0.940485 -0.391811 1.77991 60 93 107 0.314732 0.188839 -0.930206
-0.937469 -0.391811 1.78083 67 97 111 0.41332 0.285206 -0.864769
-0.967621 -0.376735 1.78185 50 72 86 -0.122327 0.797339 -0.591004
-0.934454 -0.394826 1.78069 62 92 106 0.324797 0.392527 -0.860482
-0.931439 -0.394826 1.78191 62 92 106 0.424191 0.286367 -0.859102
-0.916364 -0.458143 1.7818 106 112 109 0.382697 -0.268638 -0.883955
-0.934454 -0.391811 1.78247 62 92 106 0.356311 0.40968 -0.839765
-0.916364 -0.455128 1.78122 106 112 109 0.403362 -0.165077 -0.900027
-0.940485 -0.388795 1.78039 61 94 111 0.260105 0.398427 -0.879546
-0.916364 -0.452113 1.78086 116 124 121 0.417795 -0.159365 -0.894455
-0.937469 -0.388795 1.78155 62 93 108 0.407785 0.306224 -0.860197
-0.913348 -0.452113 1.78248 101 111 112 0.467796 -0.191574 -0.862824
-0.940485 -0.38578 1.78224 60 90 106 0.247728 0.45442 -0.855648
-0.916364 -0.449098 1.78005 88 103 106 0.35541 0.006324 -0.934689
-0.913348 -0.449098 1.78172 98 112 114 0.435329 -0.102183 -0.894454
-0.964606 -0.37975 1.78031 47 76 96 0.134467 0.481478 -0.866082
-0.961591 -0.37975 1.78052 47 76 96 0.058563 0.442629 -0.894791
-0.95556 -0.382765 1.77994 53 87 105 0.001221 0.294171 -0.955752
-0.958575 -0.37975 1.78056 53 84 102 0.051618 0.382504 -0.922511
-0.95556 -0.37975 1.78089 53 83 99 0.082791 0.392239 -0.91613
-0.964606 -0.376735 1.78174 52 77 93 0.150527 0.567828 -0.809267
-0.961591 -0.376735 1.78204 51 77 93 0.030724 0.436821 -0.899023
-0.958575 -0.376735 1.78202 51 80 98 0.061427 0.443637 -0.894099
-0.95556 -0.376735 1.78231 54 84 101 0.145555 0.451077 -0.880536
-0.94953 -0.382765 1.78059 54 84 99 0.413396 0.384886 -0.825207
-0.952545 -0.37975 1.78111 54 84 99 0.151822 0.508532 -0.847553
-0.94953 -0.37975 1.78187 54 84 99 0.3069 0.483171 -0.819974
-0.946515 -0.382765 1.78224 56 86 101 0.384661 0.362858 -0.848746
-0.946515 -0.461159 1.78028 131 102 93 -0.033587 -0.165621 -0.985617
-0.9435 -0.461159 1.78045 137 100 91 0.421454 -0.556981 -0.715646
-0.940485 -0.461159 1.78278 127 103 93 0.359131 -0.787511 -0.500851
-0.982697 -0.455128 1.78183 125 106 94 -0.325707 -0.724334 -0.607663
-0.979681 -0.455128 1.78025 125 106 94 -0.255944 -0.844462 -0.470508
-0.988727 -0.449098 1.78214 107 105 102 -0.633039 -0.568891 -0.525
-0.906566 -0.452113 1.78582 95 107 109 0.233402 -0.483585 -0.843605
-0.95556 -0.372324 1.78582 50 79 97 0.136144 0.647807 -0.749541
-0.904303 -0.450556 1.78582 95 107 109 0.576462 -0.26691 -0.772302
-0.952545 -0.373659 1.78582 50 79 97 0.19381 0.566168 -0.801181
-0.903955 -0.449098 1.78582 92 107 109 0.758319 -0.04695 -0.650191
-0.988727 -0.360162 1.78582 67 86 100 0.372994 0.426959 -0.823761
-0.904009 -0.446083 1.78582 92 107 109 0.836546 0.028941 -0.547132
-0.990987 -0.358644 1.78582 67 86 100 0.323241 0.432549 -0.841675
-0.952443 -0.37372 1.78582 50 79 97 0.316958 0.527202 -0.788413
-0.919379 -0.441223 1.78582 70 85 92 0.154932 0.848438 -0.506112
-0.937668 -0.409901 1.78582 114 123 121 0.332784 -0.725631 -0.602258
-0.976666 -0.375828 1.78582 51 71 88 0.07928 0.369527 -0.925832
-0.987332 -0.361659 1.78582 67 86 100 0.409698 0.207052 -0.888413
-0.977297 -0.37372 1.78582 51 71 88 0.264881 -0.130464 -0.955415
-0.991742 -0.358021 1.78582 67 86 100 0.343015 0.424461 -0.837958
-0.937469 -0.409826 1.78582 114 123 121 0.220497 -0.699022 -0.680257
-0.975898 -0.37372 1.78582 52 70 87 -0.054236 -0.083015 -0.995071
-0.934454 -0.408925 1.78582 101 114 115 0.210081 -0.66759 -0.714275
-0.970636 -0.37494 1.78582 50 72 86 -0.123623 0.716419 -0.68663
-0.931439 -0.408031 1.78582 114 122 117 0.11403 -0.647156 -0.753781
-0.972611 -0.37372 1.78582 50 72 86 0.246698 0.114953 -0.96225
-0.937469 -0.463111 1.78582 123 106 97 0.380889 -0.431886 -0.817556
-0.928424 -0.408041 1.78582 86 107 114 -0.01249 -0.650855 -0.759099
-0.967621 -0.374021 1.78582 50 72 86 -0.237604 0.719106 -0.653017
-0.925409 -0.408165 1.78582 86 107 114 -0.155092 -0.61585 -0.772448
-0.922505 -0.409901 1.78582 81 104 113 -0.369551 -0.53886 -0.757009
-0.928424 -0.46121 1.78582 112 111 105 -0.081509 -0.830819 -0.550542
-0.916364 -0.441049 1.78582 70 85 92 -0.064778 0.752866 -0.654979
-0.928666 -0.461159 1.78582 112 111 105 -0.109212 -0.91379 -0.391229
-0.914787 -0.440053 1.78582 72 84 86 -0.43004 0.423597 -0.797265
-0.919379 -0.401233 1.78582 55 91 111 0.36656 0.194061 -0.909931
-0.919697 -0.400856 1.78582 55 91 111 0.258278 0.386671 -0.885312
-0.922394 -0.399203 1.78582 50 87 107 0.224743 0.386323 -0.894564
-0.923747 -0.397841 1.78582 50 87 107 0.350635 0.201794 -0.914513
-0.925409 -0.461622 1.78582 112 111 105 -0.098372 -0.856836 -0.506118
-0.922394 -0.461901 1.78582 115 114 107 -0.003855 -0.918872 -0.394537
-0.913348 -0.438163 1.78582 76 91 96 -0.283197 0.395265 -0.873822
-0.919379 -0.462051 1.78582 115 114 107 -0.003875 -0.915765 -0.401697
-0.910333 -0.437612 1.78582 81 93 93 0.025108 0.424199 -0.905221
-0.934454 -0.386234 1.78582 51 86 104 0.384675 0.471589 -0.793492
-0.934895 -0.38578 1.78582 51 86 104 0.375967 0.401136 -0.835307
-0.916364 -0.461642 1.78582 113 108 101 0.169981 -0.858773 -0.483337
-0.931439 -0.388108 1.78582 42 78 99 0.224315 0.376791 -0.898727
-0.907318 -0.438388 1.78582 83 95 96 0.249425 0.515891 -0.819539
-0.96707 -0.37372 1.78582 50 72 87 -0.315985 0.675721 -0.665999
-0.928424 -0.391813 1.78582 54 88 105 0.369009 0.372123 -0.851679
-0.903473 -0.443068 1.78582 86 104 109 0.944719 0.13304 -0.299676
-0.94953 -0.375588 1.78582 48 78 96 0.312117 0.50224 -0.806435
-0.928426 -0.391811 1.78582 54 88 105 0.494934 0.300103 -0.815462
-0.915098 -0.461159 1.78582 113 108 101 0.426572 -0.736207 -0.525391
-0.925409 -0.394759 1.78582 54 88 105 0.210271 0.123614 -0.969797
-0.946515 -0.377173 1.78582 46 78 96 0.300949 0.626037 -0.71938
-0.913348 -0.459905 1.78582 112 108 101 0.550899 -0.638504 -0.537422
-0.973586 -0.464174 1.78582 128 100 90 -0.500299 0.001334 -0.865851
-0.925382 -0.394826 1.78582 54 87 104 0.347763 0.188786 -0.918379
-0.911714 -0.458143 1.78582 113 108 101 0.648679 -0.564435 -0.510519
-0.930215 -0.388795 1.78582 41 76 96 0.320375 0.335416 -0.885921
-0.916596 -0.409901 1.78582 79 101 110 0.372386 -0.056984 -0.926327
-0.91787 -0.406886 1.78582 79 101 110 0.44246 0.093517 -0.891899
-0.918116 -0.403871 1.78582 58 93 110 0.414098 0.134264 -0.900275
-0.982697 -0.458094 1.78582 125 106 94 0.00136 -0.819933 -0.572458
-0.904303 -0.440058 1.78582 86 104 109 0.397948 0.245923 -0.883832
-0.937469 -0.383457 1.78582 48 83 102 0.364162 0.420914 -0.830793
-0.904309 -0.440053 1.78582 86 104 109 0.251884 0.456445 -0.853354
-0.938226 -0.382765 1.78582 48 83 102 0.386393 0.418195 -0.822079
-0.940485 -0.380733 1.78582 51 83 103 0.333445 0.404786 -0.851447
-0.941674 -0.37975 1.78582 51 83 103 0.348 0.43618 -0.829845
-0.947572 -0.376735 1.78582 46 78 96 0.277496 0.588291 -0.759546
-0.9435 -0.412349 1.78582 108 107 97 0.44599 -0.78332 -0.433016
-0.940485 -0.411034 1.78582 108 107 97 0.315555 -0.77367 -0.549418
-0.9435 -0.378474 1.78582 52 85 103 0.239775 0.484131 -0.841502
-0.922394 -0.40998 1.78582 71 73 70 -0.279999 -0.654398 -0.702398
-0.964606 -0.372678 1.78582 49 70 85 -0.162988 0.699173 -0.696126
-0.919379 -0.411505 1.78582 71 73 70 -0.142463 -0.637335 -0.757304
-0.961591 -0.37209 1.78582 49 70 85 -0.026583 0.782092 -0.622596
-0.958575 -0.372417 1.78582 48 71 88 0.035404 0.706663 -0.706663
-0.949511 -0.418947 1.78582 86 87 80 0.855812 -0.494697 -0.151198
-0.947816 -0.415932 1.78582 77 76 68 0.814728 -0.562444 -0.140982
-0.946515 -0.41469 1.78582 91 93 85 0.61239 -0.750926 -0.24716
-0.944301 -0.412917 1.78582 80 80 72 0.583879 -0.753444 -0.302337
-0.92225 -0.440053 1.78582 65 76 81 0.200809 0.918596 -0.340379
-0.910333 -0.45636 1.78582 103 108 106 0.63792 -0.421393 -0.644582
-0.909517 -0.455128 1.78582 96 106 106 0.550651 -0.39614 -0.734749
-0.907318 -0.452378 1.78582 96 106 106 0.460908 -0.434849 -0.773609
-0.95556 -0.37372 1.7846 50 79 97 0.20638 0.64707 -0.733967
-0.952545 -0.37372 1.78578 50 79 97 0.288861 0.604852 -0.742101
-0.985712 -0.37372 1.78288 87 65 72 0.229961 0.194996 -0.953464
-0.907318 -0.452113 1.78567 95 107 109 0.28624 -0.358175 -0.888694
-0.982697 -0.376735 1.78362 55 68 84 0.273367 0.225703 -0.935055
-0.907318 -0.449098 1.78439 95 107 109 0.335134 -0.203932 -0.919835
-0.904303 -0.449098 1.78557 95 107 109 0.391593 -0.060142 -0.918171
-0.982697 -0.37372 1.78366 61 64 77 0.300369 0.079318 -0.950519
-0.907318 -0.446083 1.78406 91 107 110 0.430857 0.052675 -0.900882
-0.988727 -0.361659 1.78528 67 86 100 0.446058 0.462397 -0.766304
-0.940485 -0.409901 1.78409 114 123 121 0.400328 -0.726522 -0.558483
-0.991742 -0.449098 1.78394 128 105 95 -0.136098 -0.339557 -0.930687
-0.991742 -0.358644 1.78553 67 86 100 0.257794 0.377005 -0.889612
-0.904303 -0.446083 1.78553 91 107 110 0.396639 -0.024872 -0.917638
-0.934454 -0.406886 1.78393 101 114 115 0.260538 -0.607922 -0.750034
-0.931439 -0.406886 1.78489 114 122 117 0.156261 -0.546168 -0.822972
-0.913348 -0.443068 1.78353 71 89 97 0.040775 0.606005 -0.794415
-0.928424 -0.406886 1.78488 86 107 114 0.014399 -0.414943 -0.909733
-0.913348 -0.440053 1.78502 72 84 86 -0.058267 0.324998 -0.943918
-0.925409 -0.406886 1.78486 86 107 114 -0.069915 -0.434567 -0.897922
-0.910333 -0.443068 1.78462 80 99 106 0.128404 0.419076 -0.898826
-0.979681 -0.37372 1.785 53 69 85 0.325464 0.080378 -0.942132
-0.907318 -0.443068 1.78479 80 101 108 0.191744 0.155711 -0.969014
-0.928424 -0.403871 1.78369 92 111 115 0.194996 -0.229961 -0.953464
-0.976666 -0.376735 1.7846 51 71 88 0.043848 0.915489 -0.399945
-0.925409 -0.403871 1.78393 83 105 113 0.037869 -0.074656 -0.99649
-0.973651 -0.376735 1.78448 51 71 88 -0.098323 0.670654 -0.735225
-0.937469 -0.461159 1.7844 123 106 97 0.385553 -0.572588 -0.723528
-0.910333 -0.440053 1.78477 81 97 105 0.005932 0.236105 -0.971709
-0.922394 -0.409901 1.78575 81 104 113 -0.354846 -0.398615 -0.845689
-0.907318 -0.440053 1.78494 80 99 106 0.141799 0.225057 -0.963972
-0.913348 -0.458143 1.78383 104 113 111 0.640022 -0.376774 -0.669637
-0.928424 -0.461159 1.78565 112 111 105 -0.062908 -0.951325 -0.301702
-0.970636 -0.464174 1.78412 128 100 90 -0.366289 0.079161 -0.927128
-0.904303 -0.443068 1.78499 86 104 109 0.265367 0.046097 -0.963045
-0.913348 -0.455128 1.78298 104 113 111 0.601999 -0.222444 -0.766887
-0.973651 -0.37372 1.78551 52 70 87 -0.102996 0.153889 -0.982705
-0.910333 -0.455128 1.78528 103 108 106 0.575462 -0.217534 -0.788367
-0.970636 -0.461159 1.78352 128 100 90 -0.352244 -0.254972 -0.900507
-0.970636 -0.376735 1.78306 50 72 86 -0.216574 0.846609 -0.486157
-0.910333 -0.452113 1.78455 91 105 106 0.478091 -0.25365 -0.840887
-0.925409 -0.461159 1.78459 112 111 105 -0.104953 -0.925495 -0.363928
-0.967621 -0.464174 1.78305 128 100 90 -0.341642 -0.001251 -0.939829
-0.910333 -0.449098 1.78348 88 104 108 0.334582 -0.310576 -0.889718
-0.919379 -0.409901 1.78451 71 73 70 0.053372 -0.249484 -0.966907
-0.922394 -0.461159 1.78375 115 114 107 -0.040417 -0.929594 -0.366362
-0.919379 -0.461159 1.78395 115 114 107 0.070006 -0.893601 -0.443369
-0.916364 -0.461159 1.78502 113 108 101 0.247395 -0.798199 -0.549248
-0.988727 -0.452113 1.78379 140 106 94 -0.326283 -0.137885 -0.935162
-0.922394 -0.406886 1.78436 81 104 113 -0.012723 -0.188532 -0.981985
-0.964606 -0.37372 1.78426 50 72 87 -0.233055 0.758603 -0.608446
-0.919379 -0.406886 1.78497 100 114 113 0.339747 0.126894 -0.931917
-0.961591 -0.37372 1.78354 52 77 93 -0.046934 0.740988 -0.669876
-0.958575 -0.37372 1.78405 50 72 89 0.120688 0.71668 -0.68688
-0.9435 -0.382765 1.78291 56 86 99 0.373412 0.505965 -0.777537
-0.922394 -0.403871 1.78419 77 103 114 0.242445 0.090123 -0.96597
-0.946515 -0.37975 1.78336 56 86 101 0.345421 0.575702 -0.741115
-0.919379 -0.403871 1.78529 66 97 112 0.314992 0.088303 -0.944977
-0.928424 -0.400856 1.78352 62 94 110 0.401691 0.006458 -0.915752
-0.9435 -0.37975 1.78487 56 87 104 0.353858 0.525132 -0.773964
-0.925409 -0.400856 1.78445 61 95 111 0.224975 0.182377 -0.957144
-0.952545 -0.376735 1.7834 51 79 97 0.345778 0.58279 -0.735387
-0.94953 -0.376735 1.785 51 79 97 0.339908 0.619642 -0.707465
-0.928424 -0.397841 1.78342 61 94 110 0.476636 0.140528 -0.867796
-0.925409 -0.397841 1.78497 56 91 108 0.410228 0.178297 -0.894384
-0.922394 -0.400856 1.78478 57 93 110 0.192317 0.283634 -0.93945
-0.931439 -0.391811 1.7837 62 92 106 0.449835 0.427099 -0.784369
-0.937469 -0.38578 1.78424 61 92 108 0.467082 0.513624 -0.719739
-0.934454 -0.388795 1.78424 51 85 103 0.426925 0.489083 -0.760614
