ply
format ascii 1.0
element vertex 736
property float x
property float y
property float z
property uchar red
property uchar green
property uchar blue
property float nx
property float ny
property float nz
end_header
-0.735456 0.334835 1.81794 183 41 81 0.211861 0.384272 -0.898582
-0.81988 0.371017 1.81897 178 58 34 0.437898 -0.183068 -0.880189
-0.83194 0.349911 1.81779 179 58 36 0.330442 -0.285988 -0.899455
-0.828925 0.349911 1.81869 179 58 36 0.271557 -0.178764 -0.945674
-0.828925 0.352926 1.81812 177 60 36 0.382583 -0.166402 -0.908813
-0.828925 0.355941 1.81802 177 60 36 0.528668 0.001345 -0.848828
-0.828925 0.358956 1.81819 178 61 36 0.598449 0.15828 -0.78537
-0.809603 0.301669 1.822 174 57 42 -0.2096 -0.929837 -0.302443
-0.774653 0.343896 1.822 170 39 68 -0.33931 0.885222 -0.318198
-0.810834 0.301916 1.822 174 57 42 -0.059002 -0.93486 -0.350081
-0.80594 0.33785 1.822 166 40 60 0.444045 0.503471 -0.741175
-0.804804 0.336941 1.822 166 36 62 0.347808 0.661324 -0.66459
-0.771637 0.344993 1.822 170 39 68 -0.283197 0.873822 -0.395265
-0.828925 0.293779 1.822 178 59 37 -0.047455 -0.151625 -0.987298
-0.801789 0.335674 1.822 173 42 70 0.123678 0.743559 -0.657133
-0.768622 0.346022 1.822 170 39 68 -0.134755 0.921058 -0.365367
-0.82591 0.293488 1.822 178 59 37 0.069495 -0.203607 -0.976583
-0.798774 0.335881 1.822 173 42 70 -0.145991 0.738986 -0.657713
-0.765607 0.345977 1.822 170 39 68 -0.170851 0.900198 -0.400567
-0.823292 0.295639 1.822 178 59 37 0.183606 -0.210025 -0.960301
-0.76304 0.346896 1.822 170 39 68 -0.324941 0.910708 -0.254998
-0.762592 0.347137 1.822 170 39 68 -0.427682 0.87187 -0.238601
-0.822895 0.296109 1.822 178 59 37 0.349467 -0.316184 -0.881987
-0.718694 0.32579 1.822 181 68 94 0.37753 -0.169532 -0.910346
-0.759577 0.348587 1.822 172 40 72 -0.226287 0.903686 -0.363518
-0.821637 0.298654 1.822 179 63 41 0.481211 -0.281874 -0.83005
-0.718786 0.328805 1.822 181 68 94 0.32824 0.219304 -0.918784
-0.756562 0.348986 1.822 166 39 66 0.036823 0.874207 -0.484155
-0.81988 0.300801 1.822 179 63 41 0.403044 -0.34391 -0.848104
-0.753547 0.348341 1.822 173 39 71 0.142518 0.844826 -0.515711
-0.818939 0.301669 1.822 179 63 41 0.303105 -0.311976 -0.900443
-0.750532 0.347499 1.822 173 39 71 0.12787 0.824541 -0.551164
-0.807819 0.301193 1.822 180 67 46 -0.263103 -0.93282 -0.246219
-0.72038 0.330331 1.822 181 67 93 0.356225 0.444886 -0.821693
-0.804804 0.300316 1.822 180 67 46 -0.387783 -0.914948 -0.111781
-0.729426 0.337626 1.822 179 37 76 0.44308 0.616968 -0.650408
-0.723396 0.332298 1.822 178 43 77 0.533109 0.519655 -0.667648
-0.70832 0.307247 1.822 166 46 69 0.251471 0.72278 -0.643701
-0.725725 0.334835 1.822 178 43 77 0.5591 0.502015 -0.659839
-0.710845 0.307699 1.822 166 46 69 0.135796 0.768514 -0.625257
-0.819141 0.349911 1.822 180 58 36 0.39653 -0.152074 -0.905338
-0.722715 0.33182 1.822 178 43 77 0.347265 0.534626 -0.770443
-0.816864 0.302367 1.822 178 61 46 -0.255317 -0.699346 -0.667629
-0.729707 0.33785 1.822 179 37 76 0.450684 0.553793 -0.700141
-0.70229 0.30257 1.822 163 42 63 0.675051 0.391166 -0.625536
-0.726411 0.335501 1.822 178 43 77 0.442265 0.63586 -0.632522
-0.703674 0.304684 1.822 163 42 63 0.595277 0.52445 -0.608767
-0.72038 0.314431 1.822 127 107 105 0.544174 0.111737 -0.831498
-0.720956 0.316744 1.822 127 107 105 0.611753 0.076289 -0.787362
-0.744501 0.34689 1.822 176 40 74 0.139241 0.621345 -0.771066
-0.711335 0.307751 1.822 167 46 68 0.064206 0.803287 -0.592121
-0.74457 0.346896 1.822 176 40 74 0.068577 0.863517 -0.499636
-0.721382 0.31976 1.822 112 94 90 0.715971 -0.055958 -0.695884
-0.747516 0.347133 1.822 175 40 73 0.112096 0.822526 -0.557571
-0.795758 0.337007 1.822 166 42 61 -0.295838 0.79892 -0.523648
-0.813849 0.301996 1.822 179 60 40 -0.065951 -0.916586 -0.394361
-0.741486 0.346013 1.822 181 41 78 0.279527 0.669268 -0.688436
-0.793398 0.33785 1.822 166 42 61 -0.169169 0.672104 -0.720873
-0.820142 0.346896 1.822 177 60 38 0.27886 -0.092089 -0.955906
-0.72038 0.323121 1.822 156 48 72 0.492793 -0.138098 -0.859118
-0.738471 0.34443 1.822 181 41 78 0.382387 0.717181 -0.582607
-0.81988 0.347713 1.822 178 59 37 0.367109 -0.171507 -0.91423
-0.732441 0.340151 1.822 179 37 76 0.455647 0.559127 -0.69265
-0.733406 0.340865 1.822 179 37 76 0.419526 0.59198 -0.688156
-0.735456 0.34234 1.822 179 37 76 0.366816 0.565712 -0.738523
-0.737695 0.343881 1.822 179 37 76 0.404476 0.566266 -0.718151
-0.81988 0.362345 1.822 181 67 42 0.443583 0.324458 -0.835441
-0.821427 0.364987 1.822 181 67 42 0.526721 -0.004041 -0.850028
-0.819174 0.361971 1.822 181 67 42 0.381023 0.296014 -0.875898
-0.81988 0.36705 1.822 181 67 42 0.443902 -0.418075 -0.792568
-0.818807 0.368002 1.822 181 67 42 0.522217 -0.33904 -0.782522
-0.81704 0.371017 1.822 178 58 35 0.640152 -0.358551 -0.679446
-0.816864 0.371294 1.822 178 58 34 0.482333 -0.423472 -0.766828
-0.813849 0.373626 1.822 177 59 36 0.326033 -0.432111 -0.840822
-0.813091 0.374032 1.822 177 59 36 0.24906 -0.330623 -0.910306
-0.698579 0.295639 1.822 193 70 90 0.83489 0.14283 -0.531562
-0.817439 0.352926 1.822 180 58 36 0.414037 -0.210702 -0.885538
-0.699275 0.297298 1.822 182 52 78 0.749053 0.398293 -0.529418
-0.816864 0.35463 1.822 179 58 36 0.493883 -0.091984 -0.864649
-0.70014 0.298654 1.822 182 52 78 0.750624 0.37287 -0.545464
-0.816772 0.355941 1.822 176 55 35 0.550634 0.001353 -0.834745
-0.701775 0.301669 1.822 183 52 79 0.774851 0.442073 -0.45186
-0.816864 0.356968 1.822 177 56 33 0.454022 0.081918 -0.887217
-0.817587 0.358956 1.822 177 56 33 0.514854 0.129807 -0.847394
-0.74545 0.271518 1.822 192 73 60 0.258249 -0.663844 -0.701868
-0.744501 0.272126 1.822 192 73 60 0.466723 -0.47332 -0.747086
-0.74228 0.274533 1.822 192 73 63 0.509115 -0.439915 -0.739782
-0.741486 0.275591 1.822 192 73 63 0.547228 -0.476941 -0.6878
-0.73946 0.277548 1.822 192 73 63 0.409307 -0.671131 -0.618103
-0.732441 0.277362 1.822 188 67 48 -0.2997 -0.937771 -0.1754
-0.733453 0.277548 1.822 188 67 48 -0.130658 -0.928359 -0.347963
-0.729426 0.276238 1.822 221 109 115 -0.320964 -0.916833 -0.237484
-0.726411 0.275332 1.822 221 105 115 -0.393116 -0.906863 -0.151853
-0.738471 0.277831 1.822 216 115 114 0.039885 -0.862342 -0.504752
-0.735456 0.277752 1.822 218 108 113 -0.076295 -0.883629 -0.461929
-0.723396 0.273986 1.822 222 105 115 -0.187014 -0.968605 -0.163799
-0.724771 0.274533 1.822 222 105 115 -0.344966 -0.926836 -0.148238
-0.72038 0.273609 1.822 222 105 115 -0.108153 -0.968288 -0.225213
-0.801789 0.298553 1.822 182 70 49 -0.494697 -0.855812 0.151198
-0.801962 0.298654 1.822 182 70 49 -0.526243 -0.843431 0.108132
-0.798774 0.297016 1.822 182 70 49 -0.452018 -0.863489 0.223756
-0.807819 0.301669 1.82003 174 57 42 -0.37699 -0.91674 -0.132155
-0.828925 0.295639 1.82171 178 59 37 -0.11052 -0.219769 -0.969271
-0.82591 0.295639 1.82148 178 59 37 0.071801 -0.322452 -0.943859
-0.822895 0.349911 1.82012 179 58 36 0.310258 -0.179477 -0.933557
-0.828925 0.313729 1.82077 178 55 58 -0.2044 -0.087954 -0.974928
-0.82591 0.313729 1.81975 178 55 58 -0.303778 -0.093369 -0.948157
-0.828925 0.298654 1.82118 178 59 37 -0.155862 -0.119044 -0.980579
-0.82591 0.298654 1.82021 178 59 37 -0.024552 -0.192908 -0.98091
-0.81988 0.349911 1.82155 179 58 36 0.402446 -0.174537 -0.898651
-0.822895 0.298654 1.82093 178 59 37 0.257966 -0.213822 -0.942196
-0.828925 0.316744 1.82027 178 55 58 -0.197714 -0.136486 -0.970711
-0.828925 0.301669 1.82081 178 59 37 -0.162504 -0.047933 -0.985543
-0.822895 0.352926 1.81979 179 58 36 0.285136 -0.057027 -0.956789
-0.82591 0.301669 1.82043 178 59 37 -0.050916 -0.015587 -0.998581
-0.81988 0.352926 1.82078 179 58 36 0.358738 -0.125077 -0.925021
-0.822895 0.301669 1.82011 178 59 38 0.232311 -0.068327 -0.970239
-0.82591 0.316744 1.81925 178 55 58 -0.310682 -0.139739 -0.940186
-0.828925 0.304684 1.82075 179 60 39 -0.118676 -0.023291 -0.99266
-0.828925 0.31976 1.81972 178 55 58 -0.247554 -0.185327 -0.950984
-0.82591 0.304684 1.82051 179 60 39 -0.039965 -0.011272 -0.999137
-0.72038 0.32579 1.82158 181 68 94 0.38316 -0.071254 -0.920929
-0.834955 0.31976 1.8212 178 55 58 -0.112798 -0.039089 -0.992849
-0.83194 0.31976 1.82043 178 55 58 -0.216283 -0.110039 -0.97011
-0.834955 0.322775 1.82118 178 55 58 -0.088421 -0.005327 -0.996069
-0.70229 0.298654 1.81906 179 51 78 0.726601 0.413553 -0.548658
-0.822895 0.304684 1.82079 179 60 39 0.12819 -0.170505 -0.976983
-0.83194 0.322775 1.82006 178 55 58 -0.328237 -0.045052 -0.94352
-0.705305 0.301669 1.8195 175 45 73 0.504281 0.399834 -0.765397
-0.822895 0.355941 1.81984 179 58 36 0.207812 0.017611 -0.97801
-0.828925 0.322775 1.81907 178 55 58 -0.26554 -0.183835 -0.946411
-0.70229 0.301669 1.82141 179 51 78 0.492981 0.529746 -0.690173
-0.828925 0.307699 1.82071 179 60 39 -0.127702 -0.018878 -0.991633
-0.72038 0.328805 1.82147 181 68 94 0.433112 0.049923 -0.899956
-0.81988 0.355941 1.82058 179 58 36 0.340608 -0.034703 -0.939565
-0.82591 0.307699 1.82041 179 60 39 -0.148091 -0.10234 -0.983664
-0.816864 0.355941 1.82193 179 58 36 0.415362 0.001294 -0.909655
-0.822895 0.307699 1.81995 179 60 39 -0.175977 -0.220964 -0.959274
-0.726411 0.33182 1.81929 178 43 77 0.526981 0.490176 -0.694276
-0.83194 0.32579 1.82017 178 55 58 -0.335268 0.109063 -0.935789
-0.828925 0.310714 1.82075 179 60 39 -0.15516 -0.001116 -0.987889
-0.82591 0.310714 1.82003 179 60 39 -0.247877 -0.08771 -0.964813
-0.822895 0.358956 1.81991 177 56 33 0.193239 0.074136 -0.978347
-0.723396 0.33182 1.82158 178 43 77 0.528685 0.41669 -0.739501
-0.834955 0.328805 1.82141 174 54 43 -0.050457 0.052605 -0.99734
-0.822895 0.310714 1.81907 179 60 39 -0.268984 -0.218811 -0.93796
-0.72038 0.313729 1.82193 126 99 99 0.459331 0.009266 -0.888217
-0.726411 0.334835 1.82137 178 43 77 0.413239 0.531778 -0.73922
-0.83194 0.328805 1.82067 174 54 43 -0.2757 0.16705 -0.946617
-0.81988 0.358956 1.82017 177 56 33 0.366336 0.168316 -0.915133
-0.81988 0.301669 1.82164 179 63 41 0.370249 0.014093 -0.928826
-0.828925 0.328805 1.81965 174 54 43 -0.323461 0.250936 -0.912362
-0.822895 0.361971 1.81998 177 56 33 0.226392 0.234624 -0.945356
-0.70832 0.304684 1.81935 166 46 69 0.269438 0.664827 -0.696713
-0.81988 0.361971 1.82165 177 56 33 0.317569 0.290981 -0.902485
-0.747516 0.343881 1.81944 183 41 80 0.103449 0.58718 -0.802819
-0.83194 0.33182 1.82119 174 54 43 -0.196944 0.077065 -0.977381
-0.711335 0.307699 1.82193 162 44 67 0.098121 0.757141 -0.64584
-0.744501 0.343881 1.81957 180 41 78 0.100688 0.593911 -0.798205
-0.828925 0.33182 1.82053 174 54 43 -0.283456 0.161394 -0.945307
-0.705305 0.304684 1.82079 164 42 64 0.434016 0.486426 -0.7583
-0.741486 0.340865 1.81931 180 41 78 0.28548 0.357223 -0.889322
-0.738471 0.340865 1.81999 181 41 77 0.237601 0.449475 -0.861115
-0.82591 0.33182 1.81935 177 57 42 -0.235324 0.277597 -0.93143
-0.741486 0.343881 1.82032 180 42 79 0.271419 0.48235 -0.832869
-0.756562 0.271518 1.81973 194 82 71 -0.361486 -0.927409 -0.096126
-0.798774 0.334835 1.8202 166 42 61 -0.18951 0.85205 -0.487952
-0.738471 0.343881 1.82159 179 39 77 0.307769 0.454624 -0.83582
-0.750532 0.271518 1.81956 194 82 71 0.195603 -0.855576 -0.479302
-0.792743 0.33785 1.82169 166 42 61 -0.273965 0.855566 -0.439262
-0.747516 0.271518 1.82084 192 73 60 0.354309 -0.723313 -0.592692
-0.744501 0.274533 1.82025 192 73 60 0.514392 -0.511041 -0.688649
-0.741486 0.277548 1.8207 192 73 63 0.423215 -0.592501 -0.685442
-0.732441 0.277548 1.8216 188 67 48 -0.324513 -0.872986 -0.364125
-0.723396 0.274533 1.82021 222 105 115 -0.163387 -0.949263 -0.26871
-0.72038 0.274533 1.81905 222 105 115 -0.060102 -0.952686 -0.297954
-0.750532 0.346896 1.82141 173 39 70 0.182621 0.701327 -0.68905
-0.828925 0.334835 1.82074 177 57 38 -0.080717 0.092085 -0.992474
-0.747516 0.346896 1.82178 173 39 70 0.085862 0.635957 -0.766933
-0.735456 0.33785 1.81912 179 37 76 0.331779 0.444993 -0.831807
-0.735456 0.340865 1.82094 179 37 76 0.312202 0.511885 -0.800315
-0.82591 0.334835 1.82059 177 60 42 -0.142272 0.304869 -0.941708
-0.732441 0.33785 1.8204 179 37 76 0.363893 0.482519 -0.796717
-0.822895 0.334835 1.81999 172 57 44 -0.116172 0.353983 -0.928009
-0.82591 0.33785 1.82108 177 60 41 0.007866 0.156189 -0.987696
-0.822895 0.33785 1.82118 169 54 41 -0.057166 0.285829 -0.956574
-0.81988 0.304684 1.82157 178 61 46 -0.104781 -0.509551 -0.854037
-0.816864 0.304684 1.81958 178 61 46 -0.409482 -0.661471 -0.628315
-0.828925 0.361971 1.81926 173 57 34 0.378186 -0.001273 -0.925729
-0.82591 0.361971 1.82033 177 59 36 0.221721 0.091444 -0.970813
-0.82591 0.364987 1.81988 177 59 36 0.384105 -0.275651 -0.881181
-0.822895 0.364987 1.82125 177 55 34 0.33538 -0.256295 -0.90655
-0.822895 0.368002 1.81927 181 68 43 0.378721 -0.515255 -0.768819
-0.81988 0.368002 1.82069 181 67 42 0.529102 -0.475691 -0.702687
-0.807819 0.334835 1.81933 171 41 68 0.102084 0.521921 -0.846863
-0.804804 0.334835 1.81985 171 41 68 0.240618 0.655801 -0.715562
-0.801789 0.334835 1.82067 173 42 70 0.009503 0.845741 -0.533509
-0.771637 0.343881 1.81953 168 39 67 -0.237173 0.897131 -0.3727
-0.816864 0.374032 1.82033 178 58 34 0.5233 -0.310163 -0.793698
-0.762592 0.346896 1.82153 170 39 68 -0.340995 0.789251 -0.510692
-0.813849 0.374032 1.82177 177 59 36 0.38581 -0.218577 -0.896312
-0.759577 0.346896 1.81956 172 40 72 -0.128952 0.787052 -0.603258
-0.756562 0.346896 1.82019 172 40 72 0.070966 0.702421 -0.708215
-0.822895 0.340865 1.8216 178 59 39 0.041339 0.108375 -0.99325
-0.82591 0.343881 1.82111 178 58 36 0.192432 -0.205704 -0.959508
-0.753547 0.346896 1.82041 173 39 71 0.120456 0.694483 -0.709354
-0.822895 0.343881 1.82153 178 58 36 0.169516 -0.08055 -0.98223
-0.828925 0.346896 1.81949 179 58 36 0.228109 -0.267293 -0.936227
-0.732441 0.334835 1.81902 183 41 81 0.243178 0.404302 -0.881706
-0.82591 0.346896 1.8202 180 58 35 0.228109 -0.267293 -0.936227
-0.729426 0.334835 1.81984 179 40 76 0.349555 0.526749 -0.77482
-0.822895 0.346896 1.82096 180 58 35 0.273367 -0.225703 -0.935055
-0.82591 0.349911 1.81935 180 58 35 0.230719 -0.180041 -0.956218
-0.82591 0.352926 1.81906 177 60 36 0.239784 -0.037733 -0.970093
-0.82591 0.355941 1.81931 177 60 36 0.215003 0.067573 -0.974273
-0.723396 0.32579 1.81998 153 43 69 0.529978 -0.023281 -0.847692
-0.82591 0.358956 1.81959 177 59 35 0.143304 0.107177 -0.983858
-0.723396 0.328805 1.81987 182 50 84 0.47608 0.235759 -0.84721
-0.81988 0.340865 1.82176 168 56 42 -0.066771 0.258264 -0.963764
-0.699275 0.295639 1.8212 190 61 85 0.734358 0.114233 -0.669081
-0.774653 0.281566 1.822 184 61 41 -0.54707 -0.799563 0.247818
-0.840986 0.293826 1.822 179 60 39 0.081818 -0.07061 -0.994143
-0.777423 0.283578 1.822 184 61 41 -0.581344 -0.782876 0.221686
-0.840476 0.295639 1.822 179 60 39 0.039716 -0.063331 -0.997202
-0.834955 0.29739 1.822 179 60 39 -0.029202 -0.083279 -0.996098
-0.780683 0.286047 1.822 184 61 41 -0.560411 -0.762737 0.322758
-0.785402 0.289608 1.822 184 61 41 -0.502416 -0.769071 0.395104
-0.762592 0.273865 1.822 194 82 71 -0.472221 -0.866956 0.159356
-0.768595 0.277548 1.822 194 82 71 -0.494948 -0.766108 0.410006
-0.832741 0.295639 1.822 178 59 37 -0.060471 -0.115237 -0.991496
-0.756562 0.271362 1.822 194 82 71 -0.166237 -0.981649 -0.093433
-0.757011 0.271518 1.822 194 82 71 -0.384343 -0.923189 0.001277
-0.750532 0.270169 1.822 194 82 71 -0.162677 -0.941887 -0.293913
-0.768622 0.277565 1.822 183 60 40 -0.500885 -0.75379 0.425341
-0.792743 0.293887 1.822 188 80 63 -0.47266 -0.781269 0.407689
-0.796205 0.295639 1.822 188 80 63 -0.363687 -0.882809 0.297288
-0.786713 0.290467 1.822 188 80 63 -0.41942 -0.805093 0.41942
-0.840986 0.295639 1.82188 179 60 39 0.145425 -0.057007 -0.987726
-0.786713 0.289608 1.82091 187 69 51 -0.44214 -0.845496 0.299414
-0.768622 0.277548 1.82191 194 82 71 -0.528203 -0.846533 0.066201
-0.840986 0.301669 1.82154 179 60 39 0.092602 -0.0569 -0.994076
-0.834955 0.301669 1.82168 179 60 39 -0.055318 -0.057488 -0.996812
-0.798774 0.295639 1.81898 188 80 63 -0.526119 -0.793152 0.30677
-0.840986 0.307699 1.82131 179 60 39 0.08579 -0.031493 -0.995815
-0.834955 0.307699 1.82141 179 60 39 -0.066371 -0.015803 -0.99767
-0.840986 0.313729 1.8212 179 60 39 0.134846 -0.016716 -0.990726
-0.834955 0.313729 1.82145 179 60 39 -0.049442 -0.030507 -0.998311
-0.786713 0.33785 1.81782 166 42 61 -0.303914 0.881503 -0.361371
-0.840986 0.31976 1.8212 174 54 45 0.114249 -0.007617 -0.993423
-0.71435 0.310999 1.82502 126 86 85 0.329458 0.180851 -0.926688
-0.715739 0.313729 1.82502 126 86 85 0.34525 0.09538 -0.933652
-0.750532 0.349575 1.82502 178 39 75 0.068685 0.856456 -0.511631
-0.810834 0.300701 1.82502 179 61 40 -0.028563 -0.869142 -0.493738
-0.807819 0.300351 1.82502 179 61 40 -0.193026 -0.87672 -0.44057
-0.804804 0.299406 1.82502 180 65 45 -0.243819 -0.881039 -0.405368
-0.747516 0.34928 1.82502 178 39 75 0.135669 0.853402 -0.503288
-0.744501 0.348532 1.82502 178 39 75 0.170106 0.853488 -0.492567
-0.801789 0.298471 1.82502 182 70 49 -0.31938 -0.936208 -0.146668
-0.738471 0.346776 1.82502 178 39 75 0.38959 0.728222 -0.563838
-0.802318 0.298654 1.82502 182 70 49 -0.332161 -0.912354 -0.23933
-0.738731 0.346896 1.82502 178 39 75 0.315325 0.776308 -0.545817
-0.774653 0.344924 1.82502 173 42 72 -0.395265 0.873822 -0.283197
-0.741486 0.347859 1.82502 178 39 75 0.218424 0.82329 -0.523912
-0.771637 0.346145 1.82502 173 42 72 -0.261987 0.930409 -0.256323
-0.705305 0.307975 1.82502 158 46 65 0.456852 0.719334 -0.523303
-0.768622 0.346367 1.82502 175 42 74 -0.099755 0.984327 -0.145426
-0.798774 0.297204 1.82502 182 70 49 -0.40985 -0.912078 0.01171
-0.732441 0.343357 1.82502 179 36 73 0.438332 0.608331 -0.661664
-0.765607 0.346857 1.82502 171 40 69 -0.155165 0.963591 -0.217753
-0.73331 0.343881 1.82502 179 36 73 0.414111 0.640292 -0.646945
-0.765459 0.346896 1.82502 171 40 69 -0.303913 0.923153 -0.235425
-0.726411 0.338114 1.82502 185 35 77 0.483078 0.529882 -0.697037
-0.762592 0.347845 1.82502 171 40 69 -0.351453 0.922738 -0.158224
-0.729154 0.340865 1.82502 185 35 77 0.522788 0.52615 -0.670715
-0.729426 0.341136 1.82502 181 35 73 0.434164 0.516705 -0.737914
-0.759577 0.348961 1.82502 168 39 66 -0.267837 0.959857 -0.083299
-0.756562 0.349572 1.82502 168 39 66 -0.076181 0.98068 -0.180174
-0.735456 0.345149 1.82502 179 36 73 0.380081 0.68612 -0.620305
-0.753547 0.34972 1.82502 168 39 66 0.069654 0.900036 -0.430214
-0.811451 0.358956 1.82502 172 58 38 0.492712 -0.036851 -0.869412
-0.726047 0.33785 1.82502 177 36 72 0.417756 0.64411 -0.640782
-0.816864 0.282423 1.82502 180 62 39 0.338617 -0.25946 -0.904444
-0.811578 0.361971 1.82502 175 60 39 0.459331 -0.009266 -0.888217
-0.816208 0.283578 1.82502 180 62 39 0.390369 -0.157567 -0.907075
-0.714897 0.31976 1.82502 110 98 90 0.23677 -0.047845 -0.970387
-0.744501 0.268377 1.82502 191 74 63 -0.242751 -0.772106 -0.587302
-0.71435 0.321837 1.82502 127 109 102 0.36769 -0.062388 -0.927853
-0.744097 0.268502 1.82502 191 74 63 0.305082 -0.653747 -0.692488
-0.741486 0.270162 1.82502 191 74 63 0.447089 -0.414808 -0.792493
-0.815166 0.286593 1.82502 180 61 39 0.336865 -0.112288 -0.934833
-0.714193 0.322775 1.82502 142 51 68 0.48749 -0.071238 -0.870218
-0.740986 0.271518 1.82502 191 74 63 0.617715 -0.365386 -0.696363
-0.813895 0.289608 1.82502 180 61 39 0.264128 0.043401 -0.963511
-0.713768 0.32579 1.82502 142 51 68 0.571901 -0.034787 -0.819585
-0.73881 0.274533 1.82502 182 65 48 0.573998 -0.40858 -0.70964
-0.811067 0.368002 1.82502 180 66 41 0.296252 -0.03908 -0.95431
-0.71435 0.331059 1.82502 171 41 72 0.736611 0.563483 -0.374022
-0.810834 0.368614 1.82502 179 59 35 0.267199 -0.346916 -0.899029
-0.816864 0.291738 1.82502 178 62 39 0.344283 0.33215 -0.878149
-0.715684 0.33182 1.82502 171 41 72 0.428178 0.729059 -0.533982
-0.738471 0.274952 1.82502 199 82 74 0.384046 -0.667547 -0.637879
-0.817556 0.292623 1.82502 178 62 39 0.398881 0.080321 -0.913478
-0.807819 0.370409 1.82502 177 60 38 0.434812 -0.399513 -0.807049
-0.72038 0.334531 1.82502 175 42 74 0.323359 0.571106 -0.754504
-0.817743 0.295639 1.82502 177 62 39 0.457677 -0.070518 -0.886318
-0.735456 0.276833 1.82502 217 109 110 0.225035 -0.783743 -0.578883
-0.721037 0.334835 1.82502 175 42 74 0.309281 0.5785 -0.754774
-0.807339 0.371017 1.82502 177 60 38 0.608182 -0.274714 -0.744746
-0.732441 0.276782 1.82502 203 90 84 -0.14384 -0.898642 -0.414429
-0.806181 0.374032 1.82502 181 61 37 0.660397 -0.10785 -0.743131
-0.729426 0.275834 1.82502 217 107 109 -0.295978 -0.896858 -0.328699
-0.806584 0.377047 1.82502 179 56 31 0.616012 0.094659 -0.782029
-0.726411 0.274577 1.82502 217 107 109 -0.356817 -0.868306 -0.344566
-0.807065 0.380062 1.82502 179 56 31 0.578002 0.061067 -0.813747
-0.807386 0.383077 1.82502 174 56 35 0.530325 0.012207 -0.847706
-0.799329 0.340865 1.82502 165 39 61 -0.313249 0.006191 -0.949651
-0.723396 0.27389 1.82502 221 98 112 -0.171877 -0.97809 -0.11747
-0.726272 0.274533 1.82502 221 98 112 -0.281871 -0.941863 -0.182873
-0.723396 0.336121 1.82502 175 42 74 0.427989 0.597853 -0.677788
-0.72038 0.273159 1.82502 221 98 112 -0.232116 -0.963474 -0.133564
-0.717365 0.332757 1.82502 171 43 74 0.472163 0.692395 -0.545574
-0.700464 0.301669 1.82502 162 45 63 0.810294 0.394759 -0.433116
-0.713384 0.328805 1.82502 179 50 82 0.80555 0.270602 -0.527127
-0.701537 0.304684 1.82502 162 45 63 0.781743 0.393299 -0.483936
-0.696831 0.295639 1.82502 190 60 84 0.788518 0.261794 -0.556509
-0.698352 0.298654 1.82502 183 54 79 0.682018 0.409875 -0.605685
-0.699275 0.299692 1.82502 174 49 72 0.644249 0.50968 -0.570236
-0.816864 0.297135 1.82502 179 67 45 0.481107 -0.270719 -0.833815
-0.815962 0.298654 1.82502 181 74 53 0.503875 -0.428376 -0.750069
-0.813849 0.300432 1.82502 180 73 50 0.168443 -0.763304 -0.623694
-0.810834 0.301669 1.82258 179 61 40 -0.01171 -0.912078 -0.40985
-0.816864 0.301669 1.82296 179 61 41 0.26532 -0.630732 -0.729234
-0.717365 0.310714 1.82364 126 86 85 0.405897 0.377468 -0.832325
-0.813849 0.301669 1.82271 179 62 42 -0.02819 -0.890008 -0.455072
-0.816864 0.349911 1.82297 179 59 38 0.450156 -0.096763 -0.887691
-0.717365 0.313729 1.82427 126 86 85 0.541471 0.078165 -0.837078
-0.816864 0.352926 1.82225 179 59 38 0.538012 -0.169346 -0.825751
-0.70229 0.304684 1.82373 158 42 62 0.735318 0.484153 -0.474239
-0.705305 0.307699 1.82459 158 42 62 0.44669 0.740087 -0.502732
-0.816864 0.283578 1.82474 180 62 39 0.275852 -0.154746 -0.948662
-0.813849 0.355941 1.82392 176 59 39 0.529409 -0.080902 -0.8445
-0.822895 0.283578 1.82365 180 62 39 0.083622 -0.178152 -0.980443
-0.798774 0.33785 1.82388 166 42 61 -0.262714 0.468584 -0.843451
-0.81988 0.283578 1.82402 180 62 39 0.190148 -0.211424 -0.95872
-0.795758 0.33785 1.82281 166 42 61 -0.224885 0.460335 -0.858789
-0.822895 0.286593 1.82319 180 62 39 0.105041 -0.114483 -0.987856
-0.813849 0.358956 1.82366 178 58 36 0.437995 0.025295 -0.898622
-0.81988 0.286593 1.82357 180 62 39 0.178152 -0.083622 -0.980443
-0.813849 0.361971 1.82388 178 59 35 0.321408 0.114308 -0.940016
-0.816864 0.286593 1.82428 180 62 39 0.267711 -0.043581 -0.962513
-0.822895 0.289608 1.82294 180 62 39 0.235674 -0.045181 -0.970781
-0.729426 0.33785 1.82221 176 40 75 0.535019 0.551897 -0.63966
-0.81988 0.289608 1.82371 180 62 39 0.227832 0.062808 -0.971673
-0.744501 0.268502 1.82489 191 74 63 0.012153 -0.85743 -0.514458
-0.726411 0.33785 1.82477 176 40 75 0.473961 0.661536 -0.581147
-0.816864 0.289608 1.82428 180 62 39 0.242388 0.092641 -0.965746
-0.744501 0.271518 1.82241 191 74 63 0.370313 -0.56281 -0.738994
-0.72038 0.316744 1.82256 111 77 77 0.540555 0.215916 -0.81313
-0.744501 0.346896 1.82201 178 39 75 0.209853 0.843942 -0.493683
-0.741486 0.271518 1.82411 191 74 63 0.537095 -0.424718 -0.728796
-0.72038 0.31976 1.82342 111 77 77 0.525879 -0.060301 -0.848419
-0.828925 0.289608 1.82249 179 60 37 -0.009889 -0.124164 -0.992212
-0.741486 0.346896 1.82331 178 39 75 0.280383 0.809821 -0.51534
-0.82591 0.289608 1.82252 179 60 37 0.065574 -0.120794 -0.990509
-0.741486 0.274533 1.82257 190 73 62 0.637086 -0.39218 -0.663563
-0.828925 0.292623 1.82217 179 60 37 -0.018589 -0.108252 -0.99395
-0.738471 0.277548 1.82245 199 82 74 0.120431 -0.718125 -0.685415
-0.732441 0.340865 1.82269 179 36 73 0.445762 0.616052 -0.649443
-0.82591 0.292623 1.82219 179 60 37 0.08848 -0.13095 -0.987433
-0.735456 0.277548 1.8227 217 109 110 0.113488 -0.9009 -0.418926
-0.822895 0.292623 1.82271 179 60 37 0.291359 -0.123728 -0.948579
-0.735456 0.343881 1.82363 179 36 73 0.432251 0.649211 -0.625846
-0.717365 0.322775 1.8239 122 66 73 0.409715 -0.24763 -0.87796
-0.822895 0.295639 1.8221 179 60 37 0.45379 -0.174761 -0.873804
-0.729426 0.340865 1.82481 181 35 73 0.46794 0.588698 -0.659141
-0.71435 0.322775 1.82493 127 109 102 0.368849 -0.099358 -0.924164
-0.81988 0.292623 1.82398 178 62 39 0.377341 0.014166 -0.925966
-0.81988 0.295639 1.82378 178 62 39 0.45891 -0.184449 -0.869126
-0.81988 0.364987 1.82278 176 59 36 0.357109 0.051016 -0.932669
-0.72038 0.33182 1.82301 171 43 73 0.313143 0.570081 -0.759572
-0.816864 0.364987 1.82385 176 58 35 0.297412 0.023644 -0.954456
-0.81988 0.298654 1.82283 179 65 44 0.404134 -0.32981 -0.853171
-0.717365 0.328805 1.82249 175 45 76 0.378327 0.079435 -0.922257
-0.816864 0.368002 1.82318 176 59 37 0.35358 -0.261856 -0.898005
-0.816864 0.298654 1.82413 179 67 45 0.439417 -0.366446 -0.82014
-0.71435 0.328805 1.82341 180 52 83 0.481671 0.212902 -0.850097
-0.717365 0.33182 1.82418 175 43 76 0.319745 0.507456 -0.800157
-0.723396 0.334835 1.82408 175 42 74 0.415006 0.5572 -0.719234
-0.813849 0.368002 1.82404 181 66 41 0.27978 -0.210183 -0.936775
-0.816864 0.371017 1.82214 178 58 34 0.308483 -0.320405 -0.895644
-0.813849 0.371017 1.8231 179 59 35 0.285707 -0.333078 -0.898571
-0.810834 0.371017 1.82412 179 59 35 0.247439 -0.374863 -0.893449
-0.810834 0.374032 1.82254 179 59 35 0.318734 -0.192364 -0.928119
-0.807819 0.371017 1.82461 177 60 38 0.337712 -0.352994 -0.872551
-0.807819 0.374032 1.82344 178 58 34 0.428139 -0.160012 -0.889434
-0.807819 0.377047 1.82396 179 56 31 0.499533 0.080207 -0.862574
-0.807819 0.380062 1.82441 179 56 31 0.530868 0.099268 -0.84162
-0.807819 0.383077 1.82473 174 56 35 0.507941 0.042673 -0.860334
-0.699275 0.298654 1.8236 177 47 74 0.788423 0.464636 -0.403116
-0.804804 0.33785 1.82286 173 46 63 0.382696 0.529261 -0.75725
-0.801789 0.33785 1.82398 173 46 63 0.076883 0.709352 -0.700649
-0.81988 0.343881 1.82209 167 56 40 0.176187 0.086271 -0.980569
-0.81988 0.346896 1.82209 168 55 38 0.291492 -0.021087 -0.956341
-0.804804 0.340865 1.82441 166 37 62 0.444379 0.374297 -0.813898
-0.810834 0.297343 1.82803 181 73 53 0.247429 -0.187938 -0.950504
-0.807819 0.296887 1.82803 181 73 53 0.03029 -0.401671 -0.915283
-0.70229 0.307359 1.82803 158 43 63 0.672921 0.592772 -0.442492
-0.774653 0.345845 1.82803 175 42 74 -0.339786 0.851792 -0.398744
-0.702623 0.307699 1.82803 158 43 63 0.583137 0.676706 -0.449467
-0.705305 0.310138 1.82803 158 45 65 0.560105 0.604101 -0.566873
-0.771637 0.346758 1.82803 175 42 74 -0.131597 0.969727 -0.2057
-0.768622 0.34685 1.82803 175 42 74 -0.036736 0.98001 -0.195528
-0.706032 0.310714 1.82803 158 45 65 0.390843 0.611826 -0.687685
-0.741486 0.34985 1.82803 178 39 75 0.243067 0.809707 -0.534128
-0.768122 0.346896 1.82803 171 40 69 -0.053394 0.938946 -0.339896
-0.741768 0.349911 1.82803 178 39 75 0.063573 0.829279 -0.555207
-0.804804 0.297412 1.82803 180 65 45 0.015293 -0.632558 -0.774362
-0.765607 0.347247 1.82803 171 40 69 -0.220377 0.941109 -0.256414
-0.762592 0.348196 1.82803 171 40 69 -0.291844 0.93418 -0.205268
-0.738471 0.348924 1.82803 178 39 75 0.280599 0.775216 -0.565955
-0.759577 0.349106 1.82803 168 39 66 -0.220964 0.959274 -0.175977
-0.726411 0.342699 1.82803 181 33 72 0.476603 0.463409 -0.747062
-0.756562 0.349769 1.82803 168 39 66 -0.20319 0.977014 -0.064485
-0.727479 0.343881 1.82803 181 33 72 0.457506 0.608332 -0.648552
-0.755771 0.349911 1.82803 168 39 66 -0.124425 0.987103 -0.100725
-0.732441 0.346621 1.82803 179 36 73 0.322477 0.659538 -0.678984
-0.753547 0.350241 1.82803 175 44 74 -0.137348 0.97876 -0.152197
-0.750532 0.350518 1.82803 175 44 74 -0.051224 0.963266 -0.263618
-0.73308 0.346896 1.82803 179 36 73 0.300902 0.687086 -0.66134
-0.735456 0.347748 1.82803 179 36 73 0.250597 0.73603 -0.628857
-0.707732 0.31976 1.82803 179 76 93 0.58615 -0.097449 -0.80432
-0.729426 0.345171 1.82803 180 33 73 0.394833 0.672373 -0.626116
-0.70832 0.324623 1.82803 182 63 89 0.541998 0.354321 -0.762033
-0.709407 0.32579 1.82803 182 63 89 0.592309 0.43881 -0.675733
-0.744501 0.266103 1.82803 191 74 63 -0.094564 -0.787067 -0.609577
-0.747516 0.350548 1.82803 175 42 72 0.006441 0.918458 -0.395465
-0.707506 0.322775 1.82803 188 83 100 0.745543 0.216347 -0.630365
-0.741486 0.266266 1.82803 191 74 63 0.136748 -0.716799 -0.683739
-0.744501 0.350341 1.82803 175 42 72 0.097545 0.872246 -0.479241
-0.738471 0.267212 1.82803 191 74 63 0.359303 -0.680871 -0.638214
-0.717365 0.334733 1.82803 171 43 73 0.626454 0.656364 -0.420406
-0.723396 0.339985 1.82803 176 36 71 0.387713 0.602193 -0.697884
-0.717451 0.334835 1.82803 171 43 73 0.552085 0.609489 -0.568969
-0.735634 0.268502 1.82803 185 67 49 0.290556 -0.563646 -0.773227
-0.735456 0.268761 1.82803 185 67 49 0.697586 -0.272968 -0.662467
-0.71435 0.331838 1.82803 171 43 73 0.699365 0.674219 -0.237313
-0.734715 0.271518 1.82803 185 67 50 0.568495 -0.445127 -0.691864
-0.71989 0.33785 1.82803 171 42 73 0.652226 0.527511 -0.544365
-0.732441 0.274145 1.82803 203 90 84 0.244676 -0.497046 -0.832514
-0.729426 0.273784 1.82803 220 109 114 0.023527 -0.812385 -0.582647
-0.724533 0.340865 1.82803 176 36 71 0.437152 0.519633 -0.734085
-0.726411 0.273609 1.82803 217 107 109 -0.108531 -0.939261 -0.325592
-0.72038 0.338265 1.82803 174 36 71 0.490033 0.60791 -0.62475
-0.723396 0.273452 1.82803 221 98 112 -0.047128 -0.975188 -0.216306
-0.72038 0.27309 1.82803 221 98 112 -0.293876 -0.950157 -0.104109
-0.798669 0.392123 1.82803 178 61 37 0.370156 -0.073497 -0.926058
-0.803361 0.371017 1.82803 172 57 39 0.514831 -0.123269 -0.848383
-0.802702 0.374032 1.82803 174 59 40 0.576691 -0.08485 -0.812544
-0.711335 0.328505 1.82803 170 38 70 0.711095 0.311205 -0.630472
-0.711565 0.328805 1.82803 170 38 70 0.677938 0.608321 -0.41273
-0.699275 0.30379 1.82803 159 43 62 0.723428 0.448624 -0.524775
-0.802552 0.377047 1.82803 180 58 34 0.570625 0.001362 -0.82121
-0.714332 0.33182 1.82803 169 39 69 0.659194 0.700693 -0.272935
-0.699943 0.304684 1.82803 159 43 62 0.680998 0.584426 -0.441234
-0.802758 0.380062 1.82803 180 58 34 0.542461 -0.004058 -0.840071
-0.80212 0.383077 1.82803 174 56 35 0.462269 -0.103198 -0.880714
-0.697727 0.301669 1.82803 159 43 62 0.653787 0.509248 -0.559669
-0.801789 0.384434 1.82803 174 56 35 0.438562 -0.105087 -0.892536
-0.813286 0.277548 1.82803 180 62 39 0.455183 -0.171243 -0.873776
-0.812105 0.280563 1.82803 180 62 39 0.50573 -0.164622 -0.846839
-0.811503 0.283578 1.82803 180 62 39 0.630194 -0.064598 -0.773746
-0.811691 0.286593 1.82803 180 60 37 0.756841 0.029487 -0.652933
-0.812524 0.289608 1.82803 180 63 41 0.782832 0.01247 -0.622109
-0.696259 0.299949 1.82803 171 49 70 0.585518 0.534897 -0.609142
-0.811796 0.292623 1.82803 181 70 47 0.557928 0.031842 -0.829278
-0.811412 0.295639 1.82803 180 71 49 0.374466 -0.085167 -0.923321
-0.694851 0.298654 1.82803 177 49 73 0.683481 0.456211 -0.569846
-0.801789 0.297445 1.82803 182 70 49 -0.051091 -0.86855 -0.492961
-0.798774 0.296911 1.82803 182 70 49 -0.255649 -0.924049 -0.284213
-0.789728 0.294832 1.82803 186 78 55 -0.389007 -0.900934 0.192334
-0.792698 0.295639 1.82803 186 78 55 -0.262509 -0.964929 0.001199
-0.786713 0.293815 1.82803 186 78 55 -0.435516 -0.831725 0.344325
-0.795758 0.296019 1.82803 186 77 55 -0.209328 -0.97646 -0.052029
-0.792743 0.29565 1.82803 186 77 55 -0.122537 -0.990606 -0.060696
-0.765607 0.346896 1.82533 171 40 69 -0.231117 0.964493 -0.127824
-0.810834 0.298654 1.82758 181 73 53 0.020962 -0.663784 -0.74763
-0.807819 0.298654 1.82709 181 73 53 -0.111188 -0.707156 -0.698261
-0.804804 0.298654 1.8265 180 65 45 -0.1351 -0.861443 -0.489555
-0.753547 0.349911 1.82596 168 39 66 -0.05614 0.980653 -0.187531
-0.711335 0.313729 1.82671 122 73 76 0.437003 0.132382 -0.889665
-0.750532 0.349911 1.82602 178 39 75 0.039529 0.94743 -0.31751
-0.747516 0.349911 1.82649 178 39 75 0.097698 0.912311 -0.397674
-0.744501 0.349911 1.82736 178 39 75 0.141951 0.853168 -0.50195
-0.738471 0.346896 1.82519 178 39 75 0.349763 0.740196 -0.574262
-0.71435 0.31976 1.82516 115 102 93 0.378486 -0.046157 -0.924455
-0.711335 0.316744 1.82643 126 89 90 0.431127 -0.044321 -0.901202
-0.732441 0.343881 1.82551 179 36 73 0.351403 0.612913 -0.70771
-0.810834 0.361971 1.82538 174 58 37 0.443049 -0.041746 -0.895525
-0.726411 0.340865 1.82694 177 36 71 0.457515 0.500459 -0.734997
-0.729426 0.343881 1.82686 181 35 73 0.399626 0.547636 -0.735115
-0.70832 0.322775 1.82746 163 65 82 0.342985 0.056077 -0.937666
-0.711335 0.32579 1.82689 178 71 95 0.640053 0.120288 -0.758856
-0.71435 0.33182 1.82796 175 45 76 0.671522 0.665018 -0.326818
-0.72038 0.334835 1.82529 175 42 74 0.513912 0.604899 -0.608269
-0.723396 0.33785 1.82636 175 42 74 0.359615 0.567899 -0.740384
-0.741486 0.268502 1.82607 191 74 63 0.223376 -0.635761 -0.738858
-0.72038 0.33785 1.82766 175 42 73 0.342264 0.58558 -0.734814
-0.735456 0.346896 1.827 179 36 73 0.317371 0.736236 -0.597689
-0.738471 0.268502 1.82725 191 74 63 0.331348 -0.295688 -0.895978
-0.738471 0.271518 1.82673 191 74 63 0.410177 -0.253919 -0.875945
-0.738471 0.274533 1.82522 178 60 46 0.452875 -0.398079 -0.79777
-0.735456 0.271518 1.82731 185 67 49 0.305504 -0.175561 -0.935866
-0.735456 0.274533 1.82693 184 66 51 0.347083 -0.400002 -0.848252
-0.732441 0.274533 1.82779 203 90 84 -0.043972 -0.750353 -0.659573
-0.810834 0.364987 1.82505 176 60 38 0.464661 -0.039286 -0.884617
-0.810834 0.368002 1.82511 176 59 36 0.387288 -0.074219 -0.918966
-0.807819 0.368002 1.82611 178 68 47 0.409861 -0.236974 -0.880828
-0.699275 0.301669 1.82664 159 43 62 0.693926 0.415693 -0.587933
-0.804804 0.371017 1.82708 175 60 40 0.574445 -0.214069 -0.790055
-0.804804 0.374032 1.82638 180 61 38 0.650412 -0.098369 -0.753185
-0.804804 0.377047 1.82628 179 56 31 0.610191 0.029323 -0.791712
-0.804804 0.380062 1.8266 179 56 31 0.573049 0.049279 -0.818038
-0.804804 0.383077 1.82658 174 56 35 0.511187 -0.042714 -0.858408
-0.729426 0.274533 1.82713 220 109 114 -0.192236 -0.856867 -0.478355
-0.726411 0.274533 1.82515 217 107 109 -0.199934 -0.932559 -0.3006
-0.696259 0.298654 1.82699 174 49 72 0.60486 0.41263 -0.681088
-0.816864 0.277548 1.82643 180 62 39 0.287138 -0.211501 -0.934248
-0.813849 0.277548 1.82774 180 62 39 0.417972 -0.195053 -0.887273
-0.816864 0.280563 1.82557 180 62 39 0.275374 -0.258253 -0.925999
-0.813849 0.280563 1.82694 180 62 39 0.464468 -0.231478 -0.854803
-0.813849 0.283578 1.82603 180 62 39 0.553013 -0.156513 -0.81834
-0.813849 0.286593 1.82543 180 61 39 0.651313 -0.120174 -0.749233
-0.813849 0.289608 1.82508 180 61 39 0.718565 0.24057 -0.652526
-0.816864 0.292623 1.82526 178 62 39 0.527322 0.092889 -0.844573
-0.816864 0.295639 1.82544 178 62 39 0.481969 -0.059383 -0.874174
-0.813849 0.292623 1.82733 180 64 42 0.442294 0.186616 -0.87724
-0.813849 0.295639 1.82698 180 69 48 0.433756 -0.129416 -0.891688
-0.813849 0.298654 1.82657 182 79 57 0.427748 -0.321978 -0.844608
-0.774653 0.285252 1.82803 187 69 51 -0.582523 -0.743886 0.327568
-0.818846 0.265487 1.82803 181 63 41 0.181704 -0.148667 -0.97205
-0.779823 0.289608 1.82803 187 69 51 -0.618985 -0.774104 0.132746
-0.762592 0.276896 1.82803 194 82 71 -0.511054 -0.762499 0.396761
-0.763548 0.277548 1.82803 194 82 71 -0.499995 -0.737617 0.453791
-0.750532 0.268229 1.82803 194 82 71 -0.468404 -0.867795 -0.165924
-0.816864 0.268814 1.82803 181 63 41 0.257539 -0.124194 -0.958253
-0.755054 0.271518 1.82803 194 82 71 -0.577855 -0.798134 0.17049
-0.815791 0.271518 1.82803 181 63 41 0.373818 -0.117249 -0.920061
-0.756562 0.272552 1.82803 194 82 71 -0.514067 -0.758861 0.39983
-0.768622 0.281003 1.82803 194 82 71 -0.49083 -0.756764 0.431733
-0.772381 0.283578 1.82803 194 82 71 -0.492086 -0.796635 0.351032
-0.780683 0.290254 1.82803 188 80 63 -0.506022 -0.855794 0.107512
-0.774653 0.283578 1.8256 187 69 51 -0.525063 -0.727137 0.442245
-0.780683 0.289608 1.82691 187 69 51 -0.516492 -0.715782 0.469991
-0.828925 0.271518 1.82535 180 66 47 0.112316 -0.171559 -0.978751
-0.756562 0.271518 1.82403 194 82 71 -0.326404 -0.93551 0.135205
-0.822895 0.271518 1.8262 180 66 47 0.180771 -0.183372 -0.96628
-0.792743 0.295639 1.82287 186 77 55 -0.289119 -0.934399 0.20811
-0.828925 0.277548 1.82428 180 66 47 0.08055 -0.169516 -0.98223
-0.822895 0.277548 1.82485 180 66 47 0.14911 -0.211347 -0.96597
-0.834955 0.283578 1.82314 180 66 47 0.045992 -0.111053 -0.99275
-0.840986 0.289608 1.82231 180 66 47 0.065719 -0.079086 -0.994699
-0.834955 0.289608 1.82261 180 66 47 0.011816 -0.091304 -0.995753
-0.828925 0.283578 1.82329 180 66 47 0.037877 -0.148066 -0.988252
-0.816864 0.271518 1.82766 181 63 41 0.245384 -0.175658 -0.953379
-0.834955 0.295639 1.82215 179 60 39 0.015834 -0.068612 -0.997518
-0.803557 0.289608 1.83105 184 73 51 0.399755 -0.142669 -0.905451
-0.801789 0.292503 1.83105 184 73 51 0.287065 -0.179931 -0.94086
-0.801741 0.292623 1.83105 182 71 49 0.271059 0.001205 -0.962562
-0.792743 0.294201 1.83105 186 78 55 -0.099782 -0.883982 -0.456748
-0.801789 0.292977 1.83105 182 71 49 0.181318 -0.068445 -0.98104
-0.802191 0.295639 1.83105 182 71 49 0.474598 -0.403327 -0.782358
-0.789728 0.294116 1.83105 186 78 55 0.031582 -0.948714 -0.314554
-0.798774 0.294754 1.83105 182 71 49 0.049537 -0.413698 -0.909065
-0.801484 0.295639 1.83105 182 71 49 -0.203795 -0.562353 -0.801391
-0.738471 0.264685 1.83105 191 68 58 0.014979 -0.842893 -0.537872
-0.786713 0.293946 1.83105 186 78 55 -0.372343 -0.927615 -0.029839
-0.736991 0.265487 1.83105 184 66 49 0.450327 -0.614387 -0.647869
-0.801789 0.296062 1.83105 182 70 49 0.001326 -0.876523 -0.481358
-0.735456 0.26726 1.83105 184 66 49 0.536634 -0.489825 -0.687092
-0.734924 0.268502 1.83105 184 66 49 0.682407 -0.494619 -0.538213
-0.732441 0.270167 1.83105 182 64 49 0.282725 -0.640524 -0.714
-0.806463 0.265487 1.83105 180 57 34 0.282159 0.054407 -0.957824
-0.795758 0.294427 1.83105 186 77 55 -0.052689 -0.764697 -0.642232
-0.807311 0.268502 1.83105 180 57 34 0.322777 0.094309 -0.941765
-0.729426 0.271295 1.83105 188 67 52 0.228946 -0.590275 -0.774054
-0.807819 0.270106 1.83105 180 57 34 0.336509 0.086455 -0.937703
-0.808226 0.271518 1.83105 180 57 34 0.421447 0.044152 -0.905777
-0.72904 0.271518 1.83105 188 67 52 0.2825 -0.630438 -0.723009
-0.808695 0.274533 1.83105 180 58 36 0.477264 -0.003988 -0.878751
-0.7135 0.33182 1.83105 164 39 67 0.625978 0.739506 -0.247553
-0.726411 0.272394 1.83105 218 110 113 0.094312 -0.87978 -0.465932
-0.71435 0.332691 1.83105 164 39 67 0.714672 0.620679 -0.322494
-0.732441 0.349699 1.83105 180 38 76 0.340492 0.679356 -0.650031
-0.723396 0.272749 1.83105 221 103 113 0.027181 -0.928044 -0.371477
-0.733552 0.349911 1.83105 180 38 76 0.229199 0.768675 -0.597165
-0.726411 0.345865 1.83105 178 36 73 0.439035 0.669402 -0.59929
-0.72038 0.272569 1.83105 221 106 114 -0.119609 -0.955558 -0.269449
-0.727966 0.346896 1.83105 178 36 73 0.442605 0.669753 -0.596264
-0.729426 0.347932 1.83105 181 35 75 0.421879 0.709749 -0.564159
-0.750532 0.351167 1.83105 175 42 72 -0.15362 0.952444 -0.263158
-0.747516 0.351648 1.83105 175 42 72 -0.112366 0.93277 -0.342512
-0.744501 0.351946 1.83105 175 42 72 -0.034054 0.873136 -0.486286
-0.741486 0.352331 1.83105 175 42 72 0.088603 0.777089 -0.623123
-0.738471 0.351576 1.83105 175 42 72 0.233989 0.727094 -0.645433
-0.808159 0.277548 1.83105 180 58 36 0.494644 -0.113266 -0.861683
-0.735456 0.350227 1.83105 175 40 71 0.292823 0.731258 -0.616049
-0.807819 0.278459 1.83105 181 64 41 0.464539 -0.188487 -0.86526
-0.806936 0.280563 1.83105 181 64 41 0.376282 -0.181703 -0.908513
-0.805161 0.283578 1.83105 181 64 41 0.252872 -0.17985 -0.950636
-0.72038 0.341252 1.83105 179 34 74 0.566873 0.560105 -0.604101
-0.804804 0.283856 1.83105 181 62 40 0.515204 -0.224733 -0.827079
-0.723295 0.343881 1.83105 179 34 74 0.51139 0.599154 -0.616031
-0.803797 0.286593 1.83105 182 66 45 0.604075 -0.110233 -0.789266
-0.717773 0.33785 1.83105 174 40 74 0.687438 0.520178 -0.506797
-0.720053 0.340865 1.83105 174 40 74 0.685629 0.504583 -0.524699
-0.723396 0.343951 1.83105 179 40 75 0.438683 0.678874 -0.588802
-0.774653 0.348778 1.83105 169 39 66 -0.318435 0.54886 -0.772885
-0.772663 0.349911 1.83105 169 39 66 -0.085719 0.623281 -0.777286
-0.768622 0.349058 1.83105 170 39 67 0.145839 0.76528 -0.626958
-0.770073 0.349911 1.83105 170 39 67 0.247492 0.720405 -0.647892
-0.765607 0.348464 1.83105 171 39 69 -0.080319 0.863786 -0.497417
-0.762592 0.349264 1.83105 171 39 69 -0.21592 0.891588 -0.398057
-0.695395 0.301669 1.83105 162 42 61 0.721453 0.559663 -0.407778
-0.759577 0.349868 1.83105 168 39 66 -0.177236 0.930835 -0.319582
-0.759146 0.349911 1.83105 168 39 66 -0.053887 0.931854 -0.35881
-0.756562 0.350128 1.83105 177 45 77 -0.122781 0.94042 -0.317071
-0.753547 0.350648 1.83105 175 44 74 -0.150452 0.954637 -0.256967
-0.70374 0.313729 1.83105 163 50 73 0.643787 0.206322 -0.736865
-0.702282 0.310714 1.83105 157 46 65 0.683321 0.472811 -0.556347
-0.703903 0.316744 1.83105 163 50 73 0.678231 0.055922 -0.732718
-0.70229 0.310727 1.83105 157 46 65 0.67422 0.286664 -0.680626
-0.704388 0.31976 1.83105 163 56 76 0.800042 0.30259 -0.518047
-0.705305 0.322155 1.83105 178 74 90 0.802664 0.288581 -0.521968
-0.705607 0.322775 1.83105 178 74 90 0.796381 0.374862 -0.474611
-0.707015 0.32579 1.83105 173 48 75 0.795564 0.453455 -0.401816
-0.716185 0.334835 1.83105 168 40 71 0.758394 0.537534 -0.368641
-0.717365 0.337047 1.83105 168 40 70 0.758748 0.470326 -0.45066
-0.70832 0.327206 1.83105 168 40 69 0.680871 0.638214 -0.359303
-0.70985 0.328805 1.83105 168 40 69 0.679803 0.627131 -0.380229
-0.711335 0.330144 1.83105 166 38 67 0.637746 0.717664 -0.279713
-0.795758 0.382502 1.83105 174 59 39 0.393458 -0.063114 -0.917174
-0.793375 0.389108 1.83105 179 59 36 0.511212 -0.139155 -0.848114
-0.793061 0.392123 1.83105 179 59 36 0.545277 -0.093517 -0.833023
-0.792743 0.393237 1.83105 178 61 37 0.506907 -0.161087 -0.846815
-0.792094 0.395138 1.83105 179 61 37 0.45374 -0.139723 -0.880112
-0.791061 0.398153 1.83105 179 61 37 0.402697 -0.071862 -0.912508
-0.791106 0.401168 1.83105 178 60 37 0.431404 0.03339 -0.901541
-0.804804 0.289608 1.83069 184 73 51 0.141279 -0.044796 -0.988956
-0.804804 0.292623 1.83005 184 73 51 0.282619 -0.173395 -0.94343
-0.738471 0.265487 1.83007 191 68 58 0.278633 -0.733999 -0.619362
-0.792743 0.295639 1.82806 186 78 55 -0.189189 -0.884348 -0.426775
-0.798774 0.295639 1.8303 186 77 55 -0.175407 -0.83206 -0.526222
-0.801789 0.292623 1.83103 184 73 51 0.311788 0.001232 -0.950151
-0.795758 0.295639 1.82905 186 77 55 -0.13655 -0.881108 -0.452772
-0.744501 0.265487 1.82906 191 74 63 -0.32251 -0.896192 -0.304676
-0.804804 0.295639 1.82921 182 71 49 0.246602 -0.476356 -0.843962
-0.810834 0.295639 1.82826 182 70 49 0.193474 -0.217491 -0.956695
-0.741486 0.265487 1.82893 191 74 63 0.025104 -0.907712 -0.418842
-0.807819 0.295639 1.82854 182 70 49 0.143879 -0.370174 -0.917753
-0.735456 0.268502 1.82838 184 66 49 0.58407 -0.73939 -0.33491
-0.732441 0.271518 1.82931 182 64 49 0.381443 -0.564798 -0.731782
-0.729426 0.271518 1.83079 188 67 52 0.175458 -0.642327 -0.746076
-0.774653 0.346896 1.82942 170 39 67 -0.312308 0.655361 -0.687725
-0.771637 0.346896 1.82821 170 39 67 -0.061803 0.697079 -0.714326
-0.768622 0.346896 1.82812 170 39 67 -0.029226 0.805795 -0.591473
-0.771637 0.349911 1.83078 169 39 66 0.00138 0.674661 -0.738126
-0.756562 0.349911 1.82954 168 39 66 -0.156281 0.976443 -0.148779
-0.741486 0.349911 1.82812 178 39 75 0.225923 0.752557 -0.618561
-0.738471 0.349911 1.82923 178 39 75 0.254641 0.735455 -0.627904
-0.726411 0.343881 1.8289 179 36 73 0.466363 0.573342 -0.673635
-0.732441 0.346896 1.82827 180 38 76 0.315303 0.667796 -0.674264
-0.705305 0.310714 1.82845 160 43 66 0.58279 0.345778 -0.735387
-0.810834 0.265487 1.82991 180 57 34 0.222977 -0.049957 -0.973543
-0.70832 0.316744 1.82823 155 49 69 0.5105 -0.065736 -0.857361
-0.735456 0.349911 1.83065 180 38 76 0.229857 0.752118 -0.617644
-0.70229 0.310714 1.83104 160 43 66 0.601885 0.520959 -0.605257
-0.705305 0.313729 1.82986 162 47 71 0.487533 0.212824 -0.846769
-0.807819 0.265487 1.83067 180 57 34 0.225537 -0.010627 -0.974177
-0.810834 0.268502 1.82992 180 57 34 0.300897 -0.033993 -0.953051
-0.807819 0.268502 1.83086 180 57 34 0.282159 0.054407 -0.957824
-0.705305 0.316744 1.83002 162 47 71 0.523983 -0.012186 -0.851642
-0.810834 0.271518 1.82997 180 57 34 0.36373 -0.001267 -0.931504
-0.705305 0.31976 1.82994 164 51 73 0.671526 0.044011 -0.739673
-0.798774 0.383077 1.82965 174 59 39 0.422159 -0.116409 -0.899016
-0.810834 0.274533 1.82985 180 58 36 0.441361 -0.093284 -0.892468
-0.70832 0.32579 1.8291 153 56 73 0.634235 0.58713 -0.503014
-0.795758 0.383077 1.83101 174 59 39 0.396478 -0.164603 -0.903167
-0.810834 0.277548 1.82941 180 58 36 0.502649 -0.154775 -0.850523
-0.798774 0.386092 1.82918 177 58 36 0.381758 -0.173006 -0.907926
-0.783698 0.346896 1.82989 166 39 60 0.286049 0.456133 -0.842686
-0.795758 0.386092 1.83036 177 58 36 0.399977 -0.209512 -0.892257
-0.810834 0.280563 1.82881 180 62 39 0.514854 -0.129807 -0.847394
-0.717365 0.334835 1.82822 168 40 70 0.723869 0.58988 -0.357849
-0.810834 0.283578 1.82859 180 62 39 0.506611 0.001337 -0.862174
-0.810834 0.286593 1.82911 180 61 38 0.470085 0.025592 -0.88225
-0.798774 0.389108 1.82843 179 58 35 0.343987 -0.198399 -0.917775
-0.795758 0.389108 1.82959 179 58 35 0.445142 -0.148381 -0.883081
-0.711335 0.328805 1.82836 166 38 67 0.700566 0.608688 -0.372432
-0.810834 0.289608 1.82888 181 65 43 0.46116 -0.061947 -0.885152
-0.795758 0.392123 1.82918 179 59 36 0.457067 -0.090854 -0.88478
-0.807819 0.280563 1.83057 181 64 41 0.48673 -0.116298 -0.865776
-0.807819 0.283578 1.8302 181 64 41 0.387636 -0.035479 -0.921129
-0.795758 0.395138 1.82898 178 61 37 0.455036 -0.030873 -0.889938
-0.807819 0.286593 1.83014 180 60 37 0.197878 -0.019905 -0.980024
-0.792743 0.395138 1.83059 178 61 37 0.447929 -0.064381 -0.891748
-0.804804 0.286593 1.83024 181 62 40 0.222088 -0.062577 -0.973016
-0.807819 0.289608 1.8302 181 64 42 0.310675 -0.074094 -0.947624
-0.792743 0.398153 1.83035 178 61 37 0.382504 -0.051618 -0.922511
-0.810834 0.292623 1.82847 179 65 43 0.392807 -0.10337 -0.913793
-0.807819 0.292623 1.82975 183 72 50 0.207153 -0.226108 -0.951821
-0.696259 0.301669 1.8299 183 56 79 0.651856 0.560899 -0.510368
-0.729426 0.346896 1.83002 178 36 73 0.38123 0.668391 -0.638684
-0.723396 0.340865 1.82866 179 34 74 0.47199 0.528695 -0.705483
-0.72038 0.340865 1.8307 179 34 74 0.538401 0.585658 -0.605912
-0.723396 0.343881 1.83098 179 34 74 0.45707 0.59101 -0.664677
-0.801789 0.377047 1.8285 178 60 36 0.474324 -0.020155 -0.88012
-0.801789 0.380062 1.82854 170 56 35 0.447191 -0.050292 -0.893023
-0.801789 0.383077 1.82817 178 58 35 0.431971 -0.102051 -0.896095
-0.797082 0.265487 1.83406 184 60 38 0.320597 0.11402 -0.940328
-0.798774 0.26838 1.83406 184 60 38 0.330834 0.187238 -0.924927
-0.798774 0.280274 1.83406 187 69 51 0.420768 -0.466256 -0.778177
-0.798607 0.280563 1.83406 187 69 51 0.410889 -0.038562 -0.91087
-0.711934 0.33182 1.83406 164 39 67 0.636951 0.6067 -0.475613
-0.71435 0.334681 1.83406 164 39 67 0.707044 0.591676 -0.387309
-0.798426 0.283578 1.83406 187 69 51 0.335949 -0.061438 -0.939874
-0.792743 0.291994 1.83406 186 78 55 0.30064 -0.641473 -0.705781
-0.79806 0.286593 1.83406 187 69 51 0.331805 -0.080638 -0.939895
-0.791094 0.292623 1.83406 186 78 55 0.29292 -0.786925 -0.543089
-0.726411 0.348484 1.83406 177 37 71 0.376684 0.676057 -0.63329
-0.796337 0.289608 1.83406 187 69 51 0.43443 -0.263706 -0.861237
-0.789728 0.29317 1.83406 186 78 55 0.126787 -0.91259 -0.388722
-0.795758 0.290441 1.83406 186 76 54 0.365289 -0.530887 -0.764672
-0.786713 0.293284 1.83406 186 78 55 -0.081902 -0.95032 -0.300306
-0.730534 0.265487 1.83406 188 63 41 0.254881 -0.502039 -0.826433
-0.729426 0.265982 1.83406 188 63 41 0.445675 -0.521887 -0.727329
-0.726963 0.268502 1.83406 186 62 46 0.513244 -0.473381 -0.715885
