ply
format ascii 1.0
element vertex 715
property float x
property float y
property float z
property uchar red
property uchar green
property uchar blue
property float nx
property float ny
property float nz
end_header
-0.696259 -0.123464 1.86228 204 96 102 -0.163115 -0.815573 -0.555188
-0.690229 -0.102358 1.86314 184 48 75 -0.538064 0.568425 -0.6224
-0.70229 -0.120449 1.86141 204 91 100 -0.294538 -0.165764 -0.941153
-0.687214 -0.099343 1.86296 187 51 78 -0.549053 0.549053 -0.630144
-0.699275 -0.120449 1.86122 204 91 100 -0.059253 -0.475402 -0.877771
-0.684199 -0.096328 1.8638 179 51 73 -0.3507 0.706293 -0.614948
-0.690229 -0.123464 1.86325 199 107 108 0.220141 -0.952144 -0.212038
-0.681184 -0.096328 1.8619 188 59 83 -0.388221 0.682278 -0.619501
-0.681184 -0.120449 1.86158 198 99 103 0.273682 -0.94207 -0.193915
-0.663093 -0.081252 1.8617 185 59 82 -0.268708 0.827868 -0.492372
-0.657063 -0.078237 1.86209 180 51 76 -0.487998 0.765454 -0.419449
-0.608821 -0.096328 1.8638 168 92 91 0.481375 -0.793706 -0.371899
-0.632942 -0.060147 1.86248 182 52 79 -0.367846 0.772964 -0.51693
-0.660078 -0.111404 1.86163 164 91 92 0.337586 -0.925909 -0.169493
-0.70229 -0.117434 1.86221 203 81 96 -0.41332 0.285206 -0.864769
-0.699275 -0.114419 1.86122 200 72 93 -0.505035 0.297357 -0.810258
-0.651032 -0.072207 1.86382 185 57 80 -0.751106 0.556435 -0.355275
-0.605805 -0.066177 1.8615 197 66 91 0.273909 0.320781 -0.906683
-0.645002 -0.108389 1.86247 204 113 115 0.059768 -0.974585 -0.215897
-0.641987 -0.108389 1.86274 196 110 111 0.006112 -0.957099 -0.289697
-0.608821 -0.063162 1.86156 195 58 88 0.283214 0.291928 -0.913547
-0.605805 -0.093313 1.86323 231 114 117 0.669695 -0.609871 -0.423752
-0.605805 -0.063162 1.86217 195 63 90 0.274946 0.30404 -0.912121
-0.678169 -0.093313 1.86277 179 49 74 -0.555399 0.562151 -0.612795
-0.699275 -0.111404 1.86245 193 68 89 -0.500949 0.365645 -0.784445
-0.648017 -0.069192 1.86284 179 53 77 -0.568256 0.534532 -0.625588
-0.699275 -0.108389 1.86413 191 67 85 -0.576776 0.389447 -0.718095
-0.675153 -0.090298 1.86265 181 54 77 -0.564582 0.530876 -0.631995
-0.641987 -0.066177 1.86128 181 56 78 -0.509613 0.737207 -0.443644
-0.593745 -0.075222 1.86404 210 86 102 0.506611 0.001337 -0.862174
-0.696259 -0.108389 1.86164 194 67 88 -0.527511 0.544365 -0.652226
-0.672138 -0.087283 1.86312 178 50 74 -0.469715 0.743303 -0.476307
-0.599775 -0.069192 1.8628 201 70 97 0.554875 0.400103 -0.729405
-0.638972 -0.063162 1.86398 181 59 80 -0.509394 0.830634 -0.224868
-0.60279 -0.066177 1.8623 201 71 96 0.401021 0.369569 -0.838213
-0.693244 -0.105374 1.86242 191 52 80 -0.443125 0.620374 -0.647129
-0.629926 -0.105374 1.86149 198 114 112 0.368702 -0.451699 -0.81242
-0.599775 -0.066177 1.86397 200 71 95 0.465764 0.297528 -0.833391
-0.59676 -0.072207 1.86309 202 69 95 0.525914 0.327697 -0.784875
-0.626911 -0.105374 1.86275 222 126 123 0.477187 -0.570951 -0.668063
-0.705305 -0.123464 1.86397 204 85 97 -0.327712 -0.440608 -0.835745
-0.705305 -0.120449 1.8631 204 85 97 -0.547156 -0.051777 -0.835428
-0.60279 -0.063162 1.86342 194 62 90 0.349381 0.295399 -0.889197
-0.605805 -0.060147 1.86354 190 56 87 0.29282 0.355888 -0.887468
-0.705305 -0.117434 1.8636 196 64 86 -0.486351 0.196037 -0.851488
-0.608821 -0.060147 1.86231 194 59 88 0.391253 0.400757 -0.828442
-0.626911 -0.057131 1.8617 187 57 85 -0.409523 0.631693 -0.658221
-0.626911 -0.054116 1.86416 187 57 85 -0.443909 0.563615 -0.696622
-0.623896 -0.054116 1.863 188 56 85 -0.073183 0.604115 -0.793529
-0.620881 -0.057131 1.86135 193 53 87 0.167558 0.57815 -0.798541
-0.617866 -0.057131 1.86213 193 53 87 0.208882 0.60808 -0.765902
-0.620881 -0.054116 1.86355 193 53 87 0.184375 0.595791 -0.78169
-0.614851 -0.057131 1.86276 199 54 91 0.061766 0.679427 -0.731138
-0.611836 -0.057131 1.86276 195 51 87 0.286171 0.634692 -0.717825
-0.608821 -0.057131 1.86416 191 52 84 0.34256 0.576345 -0.741943
-0.599775 -0.087283 1.86308 221 113 114 0.585773 -0.452263 -0.672554
-0.599775 -0.084268 1.86168 221 113 114 0.490161 -0.193366 -0.849913
-0.59676 -0.084268 1.86323 221 110 113 0.462599 -0.197832 -0.864213
-0.599775 -0.081252 1.86161 211 93 105 0.467746 -0.06209 -0.88168
-0.59676 -0.081252 1.86312 216 102 108 0.475196 -0.076645 -0.876535
-0.59676 -0.078237 1.86283 211 92 105 0.480963 -0.119164 -0.868605
-0.59676 -0.075222 1.86232 208 86 102 0.479845 0.059462 -0.875336
-0.70832 -0.125788 1.86723 202 76 94 -0.316419 -0.519945 -0.793433
-0.710219 -0.123464 1.86723 202 76 94 -0.566446 -0.183753 -0.803351
-0.709629 -0.120449 1.86723 201 70 91 -0.718256 0.136454 -0.682268
-0.68009 -0.120449 1.86723 198 84 98 0.480952 -0.87558 0.045218
-0.705305 -0.126296 1.86723 205 86 99 -0.113907 -0.744093 -0.658293
-0.678169 -0.11927 1.86723 198 84 98 0.440613 -0.896139 0.052874
-0.70229 -0.125934 1.86723 206 97 103 0.022939 -0.873035 -0.487118
-0.709154 -0.117434 1.86723 191 60 83 -0.751474 0.261038 -0.605925
-0.681406 -0.090298 1.86723 181 51 79 -0.505464 0.555843 -0.659958
-0.70832 -0.11488 1.86723 191 60 83 -0.678984 0.322477 -0.659538
-0.681184 -0.090074 1.86723 181 51 79 -0.5498 0.573484 -0.607318
-0.708099 -0.114419 1.86723 197 63 87 -0.602749 0.545344 -0.582489
-0.678466 -0.087283 1.86723 181 51 79 -0.556701 0.60408 -0.570238
-0.705305 -0.111543 1.86723 182 55 77 -0.600616 0.499672 -0.62417
-0.678169 -0.087016 1.86723 181 51 79 -0.522054 0.720931 -0.455761
-0.705207 -0.111404 1.86723 183 55 77 -0.652898 0.435822 -0.619502
-0.703201 -0.108389 1.86723 180 55 75 -0.627286 0.479294 -0.613832
-0.674145 -0.084268 1.86723 178 50 74 -0.373184 0.646085 -0.665813
-0.699275 -0.125547 1.86723 200 102 106 0.084615 -0.951588 -0.2955
-0.669123 -0.079483 1.86723 178 50 75 -0.495623 0.64683 -0.579627
-0.696259 -0.125236 1.86723 200 102 106 0.062923 -0.970984 -0.230717
-0.675153 -0.117831 1.86723 191 88 95 0.413095 -0.909873 0.03852
-0.674133 -0.117434 1.86723 191 88 95 0.339592 -0.940504 -0.011362
-0.666108 -0.077896 1.86723 180 48 75 -0.329635 0.683626 -0.65115
-0.672138 -0.116707 1.86723 191 88 95 0.283243 -0.952488 -0.11198
-0.669123 -0.115892 1.86723 191 88 95 0.22595 -0.94625 -0.231427
-0.666108 -0.115263 1.86723 191 88 95 0.102469 -0.832742 -0.544097
-0.663093 -0.076784 1.86723 180 47 75 -0.295691 0.596176 -0.746419
-0.663093 -0.114976 1.86723 145 83 85 0.035394 -0.68947 -0.723448
-0.660078 -0.114432 1.86723 145 83 85 0.106708 -0.594936 -0.796659
-0.660078 -0.074525 1.86723 180 47 75 -0.39053 0.524519 -0.756549
-0.657063 -0.072449 1.86723 178 50 73 -0.224517 0.511654 -0.829338
-0.657063 -0.113914 1.86723 195 109 110 0.18153 -0.779512 -0.599507
-0.654047 -0.112844 1.86723 191 111 111 0.205228 -0.822433 -0.530553
-0.623896 -0.105139 1.86723 216 123 123 0.371553 -0.814866 -0.444907
-0.620881 -0.104438 1.86723 216 123 123 0.329635 -0.683626 -0.65115
-0.618478 -0.102358 1.86723 201 111 112 0.461013 -0.601832 -0.652124
-0.617866 -0.101668 1.86723 204 113 113 0.657236 -0.620631 -0.427619
-0.593745 -0.087543 1.86723 229 114 116 0.502061 -0.70889 -0.495389
-0.593516 -0.087283 1.86723 229 114 116 0.687954 -0.480396 -0.544003
-0.651032 -0.112088 1.86723 166 102 102 0.139154 -0.761605 -0.632925
-0.616091 -0.099343 1.86723 217 120 119 0.730984 -0.587718 -0.34677
-0.592106 -0.084268 1.86723 225 112 113 0.73004 -0.233927 -0.642121
-0.591515 -0.081252 1.86723 219 108 111 0.672544 -0.139925 -0.726709
-0.649157 -0.111404 1.86723 166 102 102 0.295691 -0.746419 -0.596176
-0.614851 -0.098298 1.86723 217 120 119 0.406379 -0.906323 -0.115909
-0.591066 -0.078237 1.86723 215 101 107 0.676063 -0.06775 -0.733723
-0.648017 -0.111084 1.86723 166 102 102 0.064387 -0.791245 -0.6081
-0.611836 -0.097439 1.86723 217 120 119 0.366969 -0.920884 -0.131555
-0.591335 -0.075222 1.86723 210 89 101 0.73473 0.08002 -0.673624
-0.591467 -0.072207 1.86723 205 78 97 0.586511 -0.029256 -0.809413
-0.608821 -0.096519 1.86723 234 117 119 0.316198 -0.948594 0.013748
-0.693244 -0.125244 1.86723 185 87 89 0.086776 -0.978984 -0.184553
-0.59676 -0.064466 1.86723 195 67 91 0.448463 0.474747 -0.757295
-0.597361 -0.063162 1.86723 195 67 91 0.689567 0.230903 -0.686426
-0.593745 -0.065371 1.86723 189 62 88 0.09211 0.644768 -0.758808
-0.690229 -0.12461 1.86723 185 87 89 0.202104 -0.950837 -0.234657
-0.598489 -0.060147 1.86723 186 57 85 0.518539 0.478523 -0.708614
-0.687214 -0.123992 1.86723 196 102 104 0.239617 -0.946143 -0.217709
-0.685794 -0.123464 1.86723 196 102 104 0.384197 -0.906933 -0.172817
-0.59073 -0.07081 1.86723 197 66 91 0.493025 -0.183209 -0.850506
-0.608483 -0.096328 1.86723 228 115 117 0.5871 -0.809171 0.023595
-0.684199 -0.122749 1.86723 196 102 104 0.435656 -0.894975 -0.096039
-0.605805 -0.094331 1.86723 234 115 117 0.60941 -0.79265 0.018046
-0.638182 -0.060147 1.86723 179 51 75 -0.573527 0.346066 -0.742499
-0.645002 -0.111038 1.86723 204 113 115 -0.023637 -0.802272 -0.59649
-0.590055 -0.069192 1.86723 197 67 92 0.548491 -0.195998 -0.812861
-0.654574 -0.069192 1.86723 180 49 74 -0.333653 0.031959 -0.942154
-0.654047 -0.068703 1.86723 184 52 79 -0.414804 0.506618 -0.755828
-0.588821 -0.066177 1.86723 195 66 91 0.712345 0.275695 -0.645413
-0.681184 -0.121094 1.86723 185 81 89 0.517419 -0.855044 -0.034312
-0.65163 -0.066177 1.86723 176 49 74 -0.513779 0.447698 -0.731846
-0.637168 -0.057131 1.86723 179 51 75 -0.431037 0.493316 -0.755544
-0.59073 -0.065354 1.86723 190 64 88 0.172586 0.688818 -0.704091
-0.651032 -0.065513 1.86723 182 57 81 -0.452389 0.669402 -0.589274
-0.635957 -0.056318 1.86723 181 52 77 -0.270818 0.584397 -0.764943
-0.632942 -0.055544 1.86723 182 52 78 -0.227748 0.460021 -0.858203
-0.648017 -0.063694 1.86723 182 57 81 -0.35134 0.678167 -0.645484
-0.6465 -0.063162 1.86723 181 52 77 -0.268905 0.673059 -0.688971
-0.631493 -0.054116 1.86723 179 52 77 -0.459961 0.516418 -0.722321
-0.645002 -0.062653 1.86723 180 52 77 -0.2938 0.627736 -0.720853
-0.641987 -0.061264 1.86723 180 52 77 -0.1578 0.581606 -0.798018
-0.629926 -0.052408 1.86723 183 51 81 -0.315188 0.690181 -0.651389
-0.599775 -0.0592 1.86723 184 54 84 0.460207 0.61082 -0.644289
-0.602365 -0.057131 1.86723 184 54 84 0.48287 0.627563 -0.610738
-0.605805 -0.055529 1.86723 179 57 82 0.270609 0.758022 -0.593441
-0.626911 -0.052036 1.86723 188 55 85 -0.208421 0.829119 -0.51877
-0.60279 -0.056757 1.86723 179 57 82 0.337863 0.748471 -0.570649
-0.638972 -0.061025 1.86723 175 53 77 -0.376407 0.68871 -0.619675
-0.623896 -0.051553 1.86723 189 54 85 -0.01171 0.912078 -0.40985
-0.620881 -0.05169 1.86723 190 53 85 0.111622 0.839343 -0.532019
-0.617866 -0.051994 1.86723 190 53 85 0.158615 0.774947 -0.6118
-0.608821 -0.054623 1.86723 187 55 84 0.267672 0.745998 -0.609786
-0.610039 -0.054116 1.86723 187 55 84 0.311118 0.776997 -0.547249
-0.614851 -0.052853 1.86723 187 52 83 0.201711 0.765269 -0.611291
-0.611836 -0.053484 1.86723 186 56 84 0.210324 0.796775 -0.566493
-0.624423 -0.105374 1.86723 181 91 95 0.778869 -0.265917 -0.568024
-0.604272 -0.093313 1.86723 231 114 116 0.544228 -0.838848 -0.012276
-0.60279 -0.092372 1.86723 231 114 116 0.494072 -0.824493 -0.27587
-0.599775 -0.090426 1.86723 232 114 116 0.466723 -0.747086 -0.47332
-0.599344 -0.090298 1.86723 234 117 119 0.220861 -0.789232 -0.573004
-0.59676 -0.08976 1.86723 233 117 117 0.329374 -0.699311 -0.63441
-0.70229 -0.108389 1.86647 199 75 93 -0.528831 0.525473 -0.666495
-0.681184 -0.090298 1.86705 181 51 79 -0.495607 0.469087 -0.73098
-0.678169 -0.090298 1.8648 181 51 79 -0.518931 0.482222 -0.705813
-0.678169 -0.087283 1.86694 181 51 79 -0.506218 0.549945 -0.664307
-0.70832 -0.123464 1.86572 202 76 94 -0.500394 -0.325653 -0.802219
-0.70832 -0.120449 1.86586 201 70 91 -0.673945 0.023819 -0.738397
-0.672138 -0.084268 1.8663 178 50 74 -0.443356 0.539665 -0.715679
-0.70832 -0.117434 1.86605 191 60 83 -0.68709 0.226943 -0.69022
-0.620881 -0.102358 1.86527 216 123 123 0.431909 -0.726468 -0.534508
-0.705305 -0.114419 1.86493 197 63 87 -0.533884 0.46403 -0.706855
-0.663093 -0.078237 1.86592 180 51 75 -0.213168 0.692409 -0.689297
-0.654047 -0.075222 1.86444 179 52 76 -0.438249 0.604883 -0.664872
-0.666108 -0.114419 1.86549 191 88 95 0.262266 -0.914309 -0.308634
-0.660078 -0.078237 1.86481 180 51 75 -0.321496 0.592909 -0.738309
-0.654047 -0.072207 1.86721 179 52 76 -0.571468 0.359813 -0.737536
-0.663093 -0.114419 1.86662 145 83 85 0.190505 -0.841524 -0.505514
-0.687214 -0.123464 1.86429 196 102 104 0.310946 -0.935602 -0.16722
-0.660078 -0.114419 1.86722 145 83 85 0.1739 -0.802966 -0.570091
-0.654047 -0.069192 1.86709 180 49 74 -0.334188 0.006258 -0.942486
-0.635957 -0.060147 1.86489 179 51 75 -0.629029 0.474707 -0.61561
-0.657063 -0.075222 1.86549 179 51 75 -0.26998 0.5668 -0.778363
-0.635957 -0.057131 1.86679 179 51 75 -0.400146 0.51774 -0.756194
-0.651032 -0.069192 1.86589 176 49 74 -0.548149 0.279603 -0.78826
-0.593745 -0.087283 1.86697 229 114 116 0.561194 -0.474083 -0.678459
-0.632942 -0.057131 1.86625 179 52 77 -0.30658 0.598714 -0.739966
-0.654047 -0.111404 1.86487 166 102 102 0.135167 -0.800607 -0.583745
-0.593745 -0.084268 1.86538 225 112 113 0.658254 -0.244675 -0.711924
-0.651032 -0.066177 1.86682 176 49 74 -0.564313 0.308534 -0.76574
-0.657063 -0.111404 1.86499 195 109 110 0.083113 -0.727604 -0.680944
-0.593745 -0.081252 1.86519 217 107 110 0.678536 -0.095259 -0.728364
-0.629926 -0.057131 1.86449 179 57 78 -0.477044 0.46714 -0.744453
-0.645002 -0.066177 1.86423 179 54 77 -0.17596 0.650286 -0.739031
-0.593745 -0.078237 1.86475 215 101 108 0.662176 -0.182828 -0.726703
-0.629926 -0.054116 1.86632 179 52 77 -0.404269 0.562676 -0.721084
-0.651032 -0.111404 1.86601 166 102 102 0.204871 -0.86285 -0.462081
-0.645002 -0.063162 1.86668 181 52 77 -0.283304 0.638634 -0.715462
-0.593745 -0.072207 1.8653 210 88 103 0.673729 0.143186 -0.724974
-0.641987 -0.063162 1.86574 180 55 77 -0.223349 0.713781 -0.663801
-0.617866 -0.054116 1.86474 189 54 85 0.237496 0.72507 -0.646429
-0.614851 -0.054116 1.86579 189 51 83 0.18567 0.735006 -0.652145
-0.611836 -0.054116 1.86633 189 51 83 0.152588 0.753874 -0.639055
-0.59676 -0.069192 1.86486 201 69 95 0.254273 0.413758 -0.874157
-0.593745 -0.069192 1.86551 200 69 94 0.353846 0.18616 -0.91659
-0.59676 -0.066177 1.8662 199 70 94 0.34552 0.382706 -0.856827
-0.605805 -0.057131 1.86553 186 52 83 0.311614 0.653904 -0.689425
-0.593745 -0.066177 1.86655 196 66 92 0.167076 0.313439 -0.934795
-0.599775 -0.063162 1.86491 190 58 87 0.62005 0.289997 -0.728999
-0.60279 -0.060147 1.8648 190 58 87 0.407086 0.548825 -0.730118
-0.60279 -0.090298 1.86434 231 114 116 0.598183 -0.64845 -0.470839
-0.599775 -0.060147 1.86637 189 57 86 0.456808 0.460083 -0.761347
-0.599775 -0.090298 1.86709 232 114 116 0.446544 -0.718786 -0.532865
-0.59073 -0.069192 1.86667 197 66 91 0.315016 0.052717 -0.947621
-0.59676 -0.087283 1.86483 233 117 117 0.413823 -0.616579 -0.669761
-0.59073 -0.066177 1.86678 195 65 91 0.17885 0.17113 -0.968879
-0.60279 -0.057131 1.86696 185 55 84 0.354154 0.589169 -0.726261
-0.711335 -0.127618 1.87024 205 90 103 -0.230603 -0.723183 -0.651021
-0.713141 -0.126479 1.87024 205 90 103 -0.540824 -0.387237 -0.746697
-0.70832 -0.128082 1.87024 205 90 103 -0.032007 -0.819661 -0.571954
-0.705305 -0.127892 1.87024 203 103 108 0.118867 -0.869307 -0.479766
-0.70229 -0.127266 1.87024 199 104 108 0.241322 -0.892744 -0.380489
-0.714117 -0.123464 1.87024 203 74 95 -0.600804 0.110172 -0.791768
-0.680146 -0.120449 1.87024 198 84 98 0.531506 -0.81043 -0.246383
-0.712447 -0.120449 1.87024 199 64 88 -0.532505 0.188564 -0.825156
-0.678169 -0.119377 1.87024 198 84 98 0.374023 -0.899122 -0.227347
-0.71199 -0.117434 1.87024 191 60 83 -0.632553 0.185324 -0.752018
-0.711335 -0.116039 1.87024 191 60 83 -0.595749 0.481634 -0.642738
-0.70926 -0.114419 1.87024 191 60 83 -0.626629 0.528666 -0.57258
-0.70832 -0.113282 1.87024 189 53 79 -0.692557 0.475611 -0.542364
-0.707549 -0.111404 1.87024 182 55 77 -0.743109 0.456411 -0.489365
-0.696259 -0.100136 1.87024 184 48 75 -0.533115 0.654201 -0.536479
-0.705796 -0.108389 1.87024 182 55 77 -0.706815 0.336346 -0.622322
-0.684199 -0.089777 1.87024 182 51 79 -0.474296 0.591614 -0.651948
-0.675153 -0.118169 1.87024 191 88 95 0.217346 -0.900015 -0.377802
-0.681196 -0.087283 1.87024 182 51 79 -0.47995 0.553531 -0.680626
-0.672138 -0.117546 1.87024 191 88 95 0.152551 -0.660049 -0.73557
-0.681184 -0.087272 1.87024 181 51 79 -0.415384 0.580875 -0.700029
-0.671951 -0.117434 1.87024 191 88 95 0.330052 -0.700752 -0.632465
-0.678169 -0.085116 1.87024 181 51 79 -0.469083 0.69945 -0.539194
-0.699373 -0.126479 1.87024 196 98 101 0.221654 -0.919507 -0.324616
-0.666108 -0.117916 1.87024 191 88 95 -0.257332 -0.440053 -0.86031
-0.666609 -0.117434 1.87024 191 88 95 -0.212018 -0.77224 -0.598911
-0.669123 -0.1167 1.87024 191 88 95 0.076613 -0.949217 -0.305152
-0.699275 -0.126453 1.87024 200 102 106 0.111503 -0.953675 -0.279412
-0.663093 -0.119642 1.87024 145 83 85 -0.167142 -0.392856 -0.904283
-0.696259 -0.12609 1.87024 200 102 106 0.082257 -0.965576 -0.246772
-0.693244 -0.125755 1.87024 185 87 89 0.079114 -0.9682 -0.237341
-0.676723 -0.084268 1.87024 177 49 73 -0.53744 0.655374 -0.530701
-0.690229 -0.1254 1.87024 174 74 76 0.148238 -0.926836 -0.344966
-0.687214 -0.124816 1.87024 196 102 104 0.321918 -0.871161 -0.370739
-0.684521 -0.123464 1.87024 196 102 104 0.447021 -0.871766 -0.200491
-0.614851 -0.105367 1.87024 179 96 99 0.445968 -0.055917 -0.8933
-0.684199 -0.123269 1.87024 196 102 104 0.511575 -0.851664 -0.113843
-0.690229 -0.094666 1.87024 182 46 75 -0.502216 0.724317 -0.472381
-0.681184 -0.121137 1.87024 185 82 89 0.535178 -0.803548 -0.260568
-0.669123 -0.077475 1.87024 180 48 75 -0.432165 0.655755 -0.619047
-0.641987 -0.057128 1.87024 182 52 78 -0.390864 0.707513 -0.58877
-0.666108 -0.075299 1.87024 180 48 75 -0.439476 0.650023 -0.619945
-0.638972 -0.055389 1.87024 182 52 78 -0.401832 0.702792 -0.587038
-0.666013 -0.075222 1.87024 180 48 75 -0.423458 0.599483 -0.679193
-0.636567 -0.054116 1.87024 181 52 77 -0.37859 0.794233 -0.475251
-0.593745 -0.089754 1.87024 232 116 118 0.595633 -0.69793 -0.397638
-0.684782 -0.090298 1.87024 182 49 76 -0.549731 0.570029 -0.610625
-0.591142 -0.087283 1.87024 232 116 118 0.644256 -0.590428 -0.486136
-0.635957 -0.05371 1.87024 182 52 79 -0.530932 0.761489 -0.371814
-0.632942 -0.051466 1.87024 185 51 82 -0.387309 0.707044 -0.591676
-0.631386 -0.051101 1.87024 184 51 82 -0.374983 0.722129 -0.581306
-0.629926 -0.050873 1.87024 184 51 82 -0.14328 0.701318 -0.698301
-0.59073 -0.08645 1.87024 229 115 116 0.745528 -0.355709 -0.563613
-0.663093 -0.072846 1.87024 184 48 79 -0.425383 0.561108 -0.710075
-0.662134 -0.072207 1.87024 180 47 75 -0.463681 0.516863 -0.71962
-0.613134 -0.099343 1.87024 199 112 113 0.477148 -0.477148 -0.738011
-0.611836 -0.098317 1.87024 217 120 119 0.53228 -0.695802 -0.482222
-0.589725 -0.084268 1.87024 229 114 116 0.661471 -0.409482 -0.628315
-0.609141 -0.096328 1.87024 228 115 117 0.597153 -0.802126 0.001366
-0.626911 -0.050465 1.87024 189 54 85 -0.067809 0.748785 -0.659335
-0.608821 -0.096064 1.87024 234 115 117 0.624527 -0.781002 -0.001373
-0.623896 -0.050289 1.87024 189 54 85 -0.086052 0.710294 -0.698626
-0.605805 -0.093658 1.87024 234 115 117 0.663237 -0.746321 -0.055867
-0.620881 -0.049618 1.87024 190 53 85 0.004108 0.801142 -0.59846
-0.617866 -0.049889 1.87024 190 53 85 0.124167 0.831187 -0.541951
-0.611836 -0.051575 1.87024 186 62 85 0.3317 0.807824 -0.487233
-0.660078 -0.070137 1.87024 183 52 80 -0.537889 0.438586 -0.719943
-0.613009 -0.051101 1.87024 186 62 85 0.267931 0.803792 -0.531161
-0.65956 -0.069192 1.87024 184 52 79 -0.579441 0.430015 -0.692341
-0.614851 -0.050486 1.87024 186 52 82 0.205559 0.823759 -0.528363
-0.608821 -0.052908 1.87024 185 58 84 0.288981 0.8484 -0.443517
-0.605805 -0.053606 1.87024 185 58 84 0.218345 0.877838 -0.426293
-0.657173 -0.066177 1.87024 185 53 81 -0.468877 0.413715 -0.780381
-0.657063 -0.066112 1.87024 184 52 80 -0.217473 0.451444 -0.865392
-0.654047 -0.065238 1.87024 184 52 80 -0.368902 0.541164 -0.75568
-0.651032 -0.063249 1.87024 182 57 81 -0.39173 0.613215 -0.685941
-0.650864 -0.063162 1.87024 182 57 81 -0.423902 0.663282 -0.616736
-0.605113 -0.093313 1.87024 231 114 116 0.461298 -0.885638 0.053385
-0.648017 -0.061296 1.87024 182 57 81 -0.395027 0.642952 -0.656175
-0.60279 -0.092425 1.87024 231 114 116 0.211356 -0.977375 -0.008174
-0.646347 -0.060147 1.87024 179 51 76 -0.416641 0.619151 -0.665629
-0.599775 -0.092069 1.87024 231 114 116 0.217425 -0.940329 -0.261741
-0.645002 -0.059181 1.87024 188 56 85 -0.408446 0.590346 -0.696178
-0.641992 -0.057131 1.87024 188 56 85 -0.37767 0.654738 -0.654738
-0.59676 -0.091433 1.87024 235 118 120 0.315201 -0.901208 -0.297443
-0.594702 -0.090298 1.87024 234 117 119 0.468276 -0.807098 -0.359598
-0.587715 -0.081629 1.87024 221 114 113 0.589695 -0.456053 -0.666539
-0.587432 -0.081252 1.87024 213 98 106 0.670134 -0.305193 -0.676593
-0.586223 -0.078237 1.87024 213 98 106 0.652446 -0.21333 -0.727189
-0.585598 -0.075222 1.87024 213 103 109 0.66025 0.032379 -0.750348
-0.586351 -0.072207 1.87024 209 91 103 0.67438 0.123562 -0.727973
-0.586707 -0.069192 1.87024 197 70 91 0.842001 0.273457 -0.465032
-0.60279 -0.054585 1.87024 183 55 83 0.452044 0.723602 -0.52159
-0.603935 -0.054116 1.87024 183 55 83 0.294685 0.83416 -0.466194
-0.599775 -0.056505 1.87024 183 55 83 0.503875 0.750069 -0.428376
-0.59676 -0.058133 1.87024 182 55 81 0.286523 0.699499 -0.65468
-0.599034 -0.057131 1.87024 182 55 81 0.40285 0.738284 -0.54097
-0.711335 -0.126479 1.86901 205 90 103 -0.379528 -0.5359 -0.754169
-0.70832 -0.126479 1.86804 205 90 103 -0.090807 -0.823027 -0.560696
-0.705305 -0.126479 1.86752 203 103 108 0.025563 -0.883957 -0.466869
-0.70229 -0.126479 1.86838 199 104 108 0.166897 -0.90581 -0.389427
-0.711335 -0.123464 1.86814 203 74 95 -0.641799 0.038085 -0.765927
-0.711335 -0.120449 1.86942 199 64 88 -0.692524 0.179657 -0.698666
-0.711335 -0.117434 1.86949 191 60 83 -0.721991 0.127058 -0.680136
-0.684199 -0.090298 1.86973 182 51 79 -0.52445 0.608767 -0.595277
-0.70832 -0.114419 1.86804 191 60 83 -0.784159 0.493131 -0.376719
-0.681184 -0.087283 1.87023 182 51 79 -0.550706 0.641648 -0.533864
-0.705305 -0.111404 1.86737 182 55 77 -0.684591 0.47369 -0.554033
-0.705305 -0.108389 1.86962 182 55 77 -0.698712 0.419891 -0.579217
-0.623896 -0.108389 1.86787 161 89 92 0.310827 0.026427 -0.950099
-0.641987 -0.060147 1.86797 185 53 80 -0.316659 0.513975 -0.797218
-0.638972 -0.060147 1.86761 185 53 80 -0.246555 0.28931 -0.924938
-0.641987 -0.057131 1.87024 185 53 80 -0.4143 0.546348 -0.727914
-0.638972 -0.057131 1.86829 185 53 80 -0.379355 0.482668 -0.78938
-0.635957 -0.054116 1.86959 181 52 77 -0.410281 0.666084 -0.622897
-0.632942 -0.054116 1.86786 179 52 77 -0.307303 0.619433 -0.722404
-0.59073 -0.084268 1.86895 229 115 116 0.733644 -0.264619 -0.625895
-0.629926 -0.051101 1.86957 184 51 82 -0.108667 0.884857 -0.453013
-0.59073 -0.081252 1.86776 221 113 114 0.599149 -0.253184 -0.759551
-0.587715 -0.081252 1.87002 221 114 113 0.550919 -0.223762 -0.804002
-0.626911 -0.051101 1.86921 189 53 85 -0.087319 0.896756 -0.433825
-0.59073 -0.078237 1.86741 216 103 108 0.502647 -0.107403 -0.857794
-0.623896 -0.051101 1.86862 189 54 85 -0.093631 0.887402 -0.451387
-0.672138 -0.117434 1.86998 191 88 95 0.258484 -0.941324 -0.217016
-0.587715 -0.078237 1.86894 216 107 109 0.471944 -0.143761 -0.869829
-0.675153 -0.084268 1.86824 177 49 73 -0.528695 0.705483 -0.47199
-0.666108 -0.117434 1.86991 191 88 95 -0.104664 -0.694323 -0.712012
-0.620881 -0.051101 1.86817 190 53 85 0.014991 0.840863 -0.541041
-0.617866 -0.051101 1.86838 190 53 85 0.141574 0.800268 -0.58269
-0.59073 -0.075222 1.86765 210 94 102 0.387156 0.043605 -0.920982
-0.663093 -0.117434 1.86912 145 83 85 -0.096519 -0.543102 -0.834101
-0.587715 -0.075222 1.86852 210 97 104 0.499045 0.025836 -0.866191
-0.608821 -0.054116 1.86804 186 55 84 0.241408 0.83186 -0.499731
-0.605805 -0.054116 1.86937 185 57 85 0.224645 0.832867 -0.505833
-0.59073 -0.072207 1.86773 204 80 97 0.470919 -0.070846 -0.879327
-0.614851 -0.051101 1.86939 186 56 84 0.214479 0.782308 -0.584802
-0.663093 -0.075222 1.86839 180 48 75 -0.391013 0.592294 -0.704483
-0.587715 -0.072207 1.86917 205 82 98 0.474432 0.045119 -0.879135
-0.660078 -0.072207 1.86892 180 47 75 -0.46471 0.46471 -0.753717
-0.59676 -0.063162 1.86829 189 64 89 0.415191 0.187929 -0.890112
-0.593745 -0.063162 1.86921 189 64 89 0.245203 0.425721 -0.870998
-0.657063 -0.072207 1.86734 178 50 73 -0.309725 0.358072 -0.880826
-0.59676 -0.060147 1.86847 189 62 88 0.459256 0.336157 -0.822242
-0.587715 -0.069192 1.86926 198 71 93 0.708352 -0.02104 -0.705546
-0.599775 -0.057131 1.86963 184 55 83 0.488374 0.672983 -0.555504
-0.59676 -0.090298 1.86812 235 118 120 0.341698 -0.808949 -0.478377
-0.620881 -0.108389 1.86849 161 89 92 0.040789 0.168985 -0.984774
-0.623896 -0.105374 1.86752 161 89 92 0.359177 -0.180298 -0.915688
-0.620881 -0.105374 1.86862 161 89 92 0.140785 -0.183908 -0.972809
-0.617866 -0.108389 1.86826 187 105 106 -0.07084 0.229918 -0.970628
-0.617866 -0.105374 1.86873 187 105 106 0.332857 -0.04241 -0.942023
-0.617866 -0.102358 1.86775 143 78 81 0.585288 -0.303067 -0.752056
-0.614851 -0.102358 1.87006 179 96 99 0.580681 -0.256507 -0.772667
-0.614851 -0.099343 1.8691 221 128 126 0.524379 -0.615429 -0.588451
-0.608821 -0.096328 1.86965 228 115 117 0.54067 -0.839645 0.051692
-0.657063 -0.069192 1.86816 184 52 79 -0.387053 0.402851 -0.829398
-0.657063 -0.066177 1.8702 185 53 81 -0.342738 0.522958 -0.780414
-0.654047 -0.066177 1.86961 185 53 80 -0.364924 0.584205 -0.724938
-0.648017 -0.063162 1.86791 182 57 81 -0.410525 0.72048 -0.558908
-0.645002 -0.060147 1.86945 179 51 76 -0.350476 0.608035 -0.712362
-0.648017 -0.111404 1.86751 170 104 104 -0.06367 -0.561711 -0.82488
-0.645002 -0.111404 1.86752 160 94 95 -0.047952 -0.480891 -0.875468
-0.71435 -0.129193 1.87326 206 90 102 -0.448915 -0.528427 -0.720583
-0.717352 -0.126479 1.87326 206 90 102 -0.470474 -0.510373 -0.719842
-0.717365 -0.126414 1.87326 200 68 90 -0.633321 -0.064625 -0.771186
-0.716964 -0.120449 1.87326 185 47 72 -0.598468 0.285669 -0.748484
-0.717659 -0.123464 1.87326 200 68 90 -0.663079 -0.001379 -0.748548
-0.715285 -0.117434 1.87326 185 47 72 -0.700766 0.422448 -0.57486
-0.717365 -0.121814 1.87326 200 68 90 -0.676349 0.251849 -0.692188
-0.70229 -0.128657 1.87326 178 96 98 0.283182 -0.858731 -0.42707
-0.702166 -0.102358 1.87326 184 44 75 -0.459258 0.752261 -0.472426
-0.711335 -0.130066 1.87326 201 100 108 -0.083133 -0.721943 -0.68694
-0.713747 -0.129494 1.87326 201 100 108 -0.293788 -0.669451 -0.682294
-0.70832 -0.129869 1.87326 195 98 106 0.035397 -0.692363 -0.720681
-0.699275 -0.100546 1.87326 184 44 75 -0.523336 0.697224 -0.489896
-0.699275 -0.127536 1.87326 178 96 98 0.210408 -0.887245 -0.410517
-0.698003 -0.099343 1.87326 184 44 75 -0.588264 0.618604 -0.520841
-0.696259 -0.127048 1.87326 194 99 103 0.083847 -0.845571 -0.527238
-0.705305 -0.129687 1.87326 170 92 96 0.067786 -0.722575 -0.687961
-0.696259 -0.097691 1.87326 184 45 76 -0.581759 0.618857 -0.527799
-0.704542 -0.129494 1.87326 170 92 96 0.346928 -0.72806 -0.591244
-0.693821 -0.126479 1.87326 179 101 103 0.113617 -0.855724 -0.504805
-0.690229 -0.127188 1.87326 179 101 103 -0.018131 -0.642955 -0.765689
-0.693242 -0.126479 1.87326 179 101 103 -0.198005 -0.784345 -0.587875
-0.694746 -0.096328 1.87326 185 45 76 -0.565715 0.606243 -0.55896
-0.675656 -0.078237 1.87326 191 50 84 -0.26137 0.211585 -0.941763
-0.668912 -0.072207 1.87326 191 52 85 -0.24335 0.315348 -0.917244
-0.666156 -0.069192 1.87326 191 52 85 -0.116082 0.097322 -0.98846
-0.675153 -0.077626 1.87326 191 50 84 -0.252309 0.28367 -0.925133
-0.693244 -0.12643 1.87326 147 84 84 -0.057972 -0.970718 -0.23312
-0.678088 -0.120449 1.87326 193 101 106 0.142011 -0.887929 -0.43751
-0.666108 -0.068922 1.87326 191 52 85 -0.147297 0.074238 -0.986302
-0.675153 -0.120002 1.87326 193 101 106 0.131771 -0.864478 -0.485092
-0.673687 -0.120449 1.87326 187 102 107 -0.243469 -0.53191 -0.811046
-0.672138 -0.075617 1.87326 191 50 84 -0.320502 0.475228 -0.819413
-0.664712 -0.066177 1.87326 187 53 83 -0.073822 0.137097 -0.987803
-0.693244 -0.094903 1.87326 189 46 81 -0.533852 0.658474 -0.530484
-0.691 -0.093313 1.87326 189 46 81 -0.457439 0.651809 -0.604892
-0.671772 -0.075222 1.87326 186 52 82 -0.254212 0.21024 -0.944021
-0.663093 -0.065748 1.87326 192 55 88 -0.236567 0.258964 -0.936469
-0.669123 -0.072315 1.87326 190 51 85 -0.227338 0.219171 -0.948832
-0.605805 -0.093965 1.87326 237 118 120 0.73561 -0.603619 -0.307443
-0.660458 -0.063162 1.87326 192 55 88 -0.273048 0.264471 -0.924932
-0.635957 -0.052173 1.87326 191 55 87 -0.441684 0.824794 -0.353031
-0.605099 -0.093313 1.87326 237 118 120 0.496037 -0.799082 -0.339729
-0.690229 -0.092775 1.87326 189 46 81 -0.573879 0.567107 -0.590807
-0.63417 -0.051101 1.87326 191 55 87 -0.577363 0.674427 -0.460217
-0.60279 -0.092292 1.87326 237 118 120 0.179951 -0.967076 -0.179951
-0.632942 -0.050236 1.87326 191 55 87 -0.488121 0.659215 -0.571991
-0.660078 -0.062353 1.87326 192 55 88 -0.21626 0.202827 -0.955035
-0.599775 -0.092325 1.87326 237 118 120 0.103617 -0.981314 -0.16213
-0.68802 -0.090298 1.87326 184 47 79 -0.610513 0.542866 -0.576689
-0.630447 -0.048086 1.87326 191 55 87 -0.463938 0.628076 -0.624726
-0.59676 -0.091998 1.87326 237 117 120 0.312608 -0.948116 -0.05789
-0.687214 -0.089162 1.87326 188 49 83 -0.563613 0.355709 -0.745528
-0.657063 -0.060376 1.87326 191 50 85 -0.1824 0.281143 -0.942172
-0.593745 -0.090551 1.87326 235 115 118 0.399875 -0.914192 -0.065973
-0.614851 -0.048615 1.87326 182 54 81 0.234967 0.824688 -0.51447
-0.656753 -0.060147 1.87326 190 53 85 -0.169045 0.235598 -0.957036
-0.59286 -0.090298 1.87326 231 119 118 0.339631 -0.936316 -0.089236
-0.617228 -0.048086 1.87326 182 54 81 0.218438 0.769956 -0.599543
-0.70229 -0.102427 1.87326 186 47 77 -0.478694 0.748474 -0.458954
-0.611836 -0.049753 1.87326 182 54 81 0.377752 0.77658 -0.504209
-0.59073 -0.089311 1.87326 235 117 119 0.581372 -0.734451 -0.350126
-0.70653 -0.105374 1.87326 191 46 82 -0.593662 0.597045 -0.539539
-0.705305 -0.104375 1.87326 191 46 82 -0.506712 0.716043 -0.480131
-0.654047 -0.057456 1.87326 192 52 86 -0.110078 0.143948 -0.983444
-0.608821 -0.100474 1.87326 223 127 129 0.537641 -0.118019 -0.834873
-0.58907 -0.087283 1.87326 234 118 119 0.685729 -0.575612 -0.445474
-0.587715 -0.085612 1.87326 231 115 117 0.624375 -0.503202 -0.597448
-0.653767 -0.057131 1.87326 192 53 87 -0.099105 0.212009 -0.97223
-0.586491 -0.084268 1.87326 230 117 115 0.669264 -0.504884 -0.54514
-0.651032 -0.055992 1.87326 192 54 87 -0.001229 0.30366 -0.95278
-0.608251 -0.099343 1.87326 223 126 128 0.56338 -0.207238 -0.799785
-0.5847 -0.081712 1.87326 226 121 118 0.692025 -0.465241 -0.551953
-0.60729 -0.096328 1.87326 223 126 128 0.71988 -0.421999 -0.551081
-0.648017 -0.056334 1.87326 192 54 87 -0.050413 0.453716 -0.889719
-0.584501 -0.081252 1.87326 223 116 115 0.749197 -0.414764 -0.516405
-0.608821 -0.051427 1.87326 181 51 78 0.263013 0.865054 -0.427206
-0.583025 -0.078237 1.87326 222 116 115 0.775216 -0.280599 -0.565955
-0.645002 -0.055792 1.87326 188 58 87 -0.122014 0.577729 -0.807057
-0.685458 -0.087283 1.87326 186 51 83 -0.455104 0.438792 -0.774818
-0.582608 -0.075222 1.87326 214 98 106 0.775797 0.026559 -0.630423
-0.641987 -0.054585 1.87326 190 57 87 -0.29442 0.683761 -0.667673
-0.583667 -0.072207 1.87326 207 85 101 0.769189 0.305437 -0.5613
-0.684199 -0.086037 1.87326 188 49 83 -0.344942 0.35414 -0.869253
-0.640905 -0.054116 1.87326 190 56 86 -0.348866 0.810835 -0.469934
-0.682432 -0.084268 1.87326 187 52 83 -0.394984 0.407674 -0.82328
-0.638972 -0.053404 1.87326 187 51 83 -0.352643 0.898575 -0.261162
-0.5847 -0.070739 1.87326 198 68 91 0.729753 0.438514 -0.524562
-0.585615 -0.069192 1.87326 198 68 91 0.844353 0.348042 -0.40735
-0.681184 -0.083378 1.87326 189 52 83 -0.261585 0.412791 -0.872455
-0.678169 -0.081305 1.87326 186 53 83 -0.43247 0.498245 -0.751479
-0.609424 -0.051101 1.87326 181 51 78 0.407457 0.80042 -0.439667
-0.605805 -0.052225 1.87326 181 54 80 0.276143 0.876717 -0.393844
-0.629926 -0.047771 1.87326 193 57 91 -0.258177 0.657321 -0.708007
-0.626911 -0.046697 1.87326 191 56 87 -0.120403 0.679312 -0.723905
-0.623896 -0.046666 1.87326 191 56 87 0.070938 0.684766 -0.725302
-0.678123 -0.081252 1.87326 183 52 80 -0.49454 0.432106 -0.754132
-0.620881 -0.047315 1.87326 192 60 90 0.133547 0.694745 -0.706749
-0.617866 -0.047949 1.87326 192 60 90 0.185985 0.699365 -0.690143
-0.599775 -0.054984 1.87326 178 61 82 0.43166 0.793801 -0.428426
-0.601081 -0.054116 1.87326 178 61 82 0.457162 0.813972 -0.358403
-0.60279 -0.053308 1.87326 177 57 79 0.339685 0.87587 -0.342732
-0.71435 -0.126479 1.87129 206 90 102 -0.565697 -0.309291 -0.764412
-0.71435 -0.123464 1.87043 179 94 99 -0.622081 0.035106 -0.782165
-0.717365 -0.123464 1.87308 200 68 90 -0.612448 -0.082528 -0.786192
-0.71435 -0.120449 1.87134 200 68 90 -0.578388 0.235408 -0.781057
-0.711335 -0.129494 1.87262 201 100 108 -0.100805 -0.793288 -0.600444
-0.70832 -0.129494 1.8725 195 98 106 0.031655 -0.849193 -0.527133
-0.71435 -0.117434 1.87245 185 47 72 -0.648855 0.318764 -0.690925
-0.699275 -0.126479 1.87032 178 96 98 0.144446 -0.931335 -0.33429
-0.705305 -0.129494 1.87297 170 92 96 0.083614 -0.851727 -0.517272
-0.696259 -0.126479 1.87159 194 99 103 0.144144 -0.947041 -0.286941
-0.690229 -0.126479 1.87234 179 101 103 0.014544 -0.897744 -0.440278
-0.699275 -0.102358 1.87047 184 44 75 -0.490709 0.735238 -0.467578
-0.705305 -0.105374 1.87192 191 46 82 -0.593948 0.587179 -0.549952
-0.696259 -0.099343 1.87123 184 44 75 -0.59083 0.627862 -0.506666
-0.675153 -0.078237 1.87304 191 50 84 -0.479515 0.436964 -0.761005
-0.693244 -0.096328 1.87147 185 45 76 -0.587263 0.644475 -0.489667
-0.672138 -0.078237 1.87121 191 50 84 -0.431145 0.536866 -0.725182
-0.669123 -0.075222 1.87197 186 52 82 -0.373736 0.50964 -0.774976
-0.666108 -0.075222 1.87031 187 51 82 -0.40906 0.537199 -0.737622
-0.666108 -0.072207 1.8725 191 52 85 -0.374766 0.419042 -0.827015
-0.669123 -0.120449 1.87219 185 98 103 -0.248537 -0.175991 -0.9525
-0.666108 -0.069192 1.87325 191 52 85 -0.273498 0.338546 -0.900325
-0.663093 -0.072207 1.8709 183 52 78 -0.328514 0.447974 -0.831503
-0.632942 -0.051101 1.87136 191 55 87 -0.480478 0.802926 -0.352776
-0.669123 -0.117434 1.87169 185 98 103 -0.082945 -0.49064 -0.867406
-0.629926 -0.048086 1.87298 191 55 87 -0.203313 0.678229 -0.706165
-0.663093 -0.069192 1.87288 187 52 83 -0.352118 0.315849 -0.881052
-0.660078 -0.069192 1.87072 184 53 82 -0.498543 0.279747 -0.820486
-0.626911 -0.048086 1.87209 194 57 89 -0.104469 0.637115 -0.763656
-0.663093 -0.066177 1.87318 187 53 83 -0.396761 0.1962 -0.896709
-0.660078 -0.066177 1.87194 187 56 84 -0.386261 0.367495 -0.84602
-0.623896 -0.048086 1.87197 188 55 86 0.00138 0.683251 -0.730182
-0.605805 -0.108389 1.87027 165 92 92 0.301117 0.632829 -0.713341
-0.620881 -0.048086 1.87231 187 54 83 0.113135 0.789007 -0.603877
-0.593745 -0.090298 1.87207 235 115 118 0.485018 -0.806243 -0.338718
-0.660078 -0.063162 1.87313 192 55 88 -0.313909 0.310934 -0.897096
-0.617866 -0.048086 1.87309 189 55 87 0.121759 0.814169 -0.567718
-0.690229 -0.093313 1.87259 189 46 81 -0.557354 0.655017 -0.510206
-0.59073 -0.087283 1.87092 235 117 119 0.610437 -0.647231 -0.456573
-0.611836 -0.051101 1.87106 182 54 81 0.383153 0.806385 -0.450485
-0.657063 -0.063162 1.87207 190 53 85 -0.304287 0.421677 -0.854165
-0.587715 -0.084268 1.87234 231 115 117 0.596065 -0.485247 -0.63972
-0.687214 -0.090298 1.87246 184 47 79 -0.562151 0.555399 -0.612795
-0.611836 -0.099343 1.87092 231 128 127 0.519473 -0.249657 -0.817202
-0.654047 -0.063162 1.87101 188 55 85 -0.227504 0.450488 -0.863309
-0.684199 -0.087283 1.8725 186 51 83 -0.489573 0.533016 -0.690081
-0.5847 -0.081252 1.873 226 121 118 0.66786 -0.300939 -0.680734
-0.654047 -0.060147 1.87271 190 53 85 -0.15 0.41857 -0.895712
-0.608821 -0.099343 1.87276 223 127 129 0.587617 -0.405539 -0.700175
-0.681184 -0.084268 1.87273 187 52 83 -0.369091 0.595467 -0.713576
-0.5847 -0.078237 1.87158 219 110 111 0.681984 -0.199492 -0.703634
-0.608821 -0.096328 1.87083 223 126 128 0.617045 -0.573091 -0.53928
-0.5847 -0.075222 1.87099 213 100 107 0.708861 0.05585 -0.703133
-0.651032 -0.063162 1.87035 182 57 82 -0.106168 0.559927 -0.821711
-0.5847 -0.072207 1.87205 205 85 101 0.745439 0.236971 -0.62303
-0.651032 -0.060147 1.87268 191 58 88 -0.227443 0.38005 -0.896566
-0.678169 -0.084268 1.87129 187 52 83 -0.434596 0.533743 -0.725428
-0.648017 -0.060147 1.87124 187 55 85 -0.291073 0.435839 -0.851658
-0.651032 -0.057131 1.87291 192 53 87 -0.158267 0.246045 -0.95625
-0.648017 -0.057131 1.87284 194 58 90 -0.133698 0.464348 -0.875503
-0.675153 -0.081252 1.87118 183 52 80 -0.506712 0.480131 -0.716043
-0.60279 -0.054116 1.87116 178 61 82 0.443045 0.810916 -0.382266
-0.645002 -0.057131 1.872 186 56 84 -0.318514 0.609542 -0.725953
-0.638972 -0.054116 1.87192 190 56 86 -0.34678 0.797435 -0.493802
-0.70229 -0.130458 1.87628 178 96 98 0.418204 -0.503485 -0.756048
-0.700557 -0.129494 1.87628 178 96 98 0.278419 -0.612521 -0.739798
-0.699275 -0.129115 1.87628 178 96 98 0.105654 -0.835104 -0.539851
-0.705305 -0.102416 1.87628 191 46 82 -0.487277 0.688216 -0.537512
-0.696259 -0.128916 1.87628 171 95 96 0.004064 -0.841304 -0.540548
-0.705219 -0.102358 1.87628 191 46 82 -0.470867 0.741823 -0.477476
-0.693244 -0.130007 1.87628 179 101 103 -0.233543 -0.409073 -0.882109
-0.70229 -0.100527 1.87628 191 46 82 -0.47369 0.684591 -0.554033
-0.72038 -0.126874 1.87628 201 78 95 -0.660886 -0.431157 -0.614274
-0.720561 -0.126479 1.87628 201 78 95 -0.894039 0.087325 -0.439396
-0.694037 -0.129494 1.87628 179 101 103 -0.112429 -0.570904 -0.813283
-0.717365 -0.130511 1.87628 205 93 105 -0.393901 -0.575195 -0.716933
-0.690229 -0.131739 1.87628 179 101 103 -0.14165 -0.436397 -0.888534
-0.718437 -0.129494 1.87628 205 93 105 -0.584083 -0.493188 -0.64468
-0.700986 -0.099343 1.87628 183 43 73 -0.522088 0.397703 -0.754491
-0.71435 -0.132298 1.87628 204 97 108 -0.369059 -0.618379 -0.693832
-0.699275 -0.097401 1.87628 184 44 75 -0.479679 0.430565 -0.76454
-0.698498 -0.096328 1.87628 184 44 75 -0.480005 0.292381 -0.827109
-0.720694 -0.123464 1.87628 197 58 83 -0.942455 0.199498 -0.26829
-0.678169 -0.068036 1.87628 197 57 88 -0.303677 0.248986 -0.919666
-0.72038 -0.122762 1.87628 197 59 83 -0.773371 0.490073 -0.402153
-0.681296 -0.072207 1.87628 201 62 92 -0.341259 0.335192 -0.878173
-0.67587 -0.066177 1.87628 197 57 88 -0.18848 0.178081 -0.965796
-0.681184 -0.072053 1.87628 201 62 92 -0.349783 0.264182 -0.89881
-0.678895 -0.069192 1.87628 201 65 94 -0.331521 0.272584 -0.903212
-0.69726 -0.093313 1.87628 195 49 86 -0.16339 0.186548 -0.968764
-0.675474 -0.063162 1.87628 200 61 90 -0.358231 0.205731 -0.910684
-0.696259 -0.092907 1.87628 195 49 86 -0.219495 0.440483 -0.870515
-0.675153 -0.062782 1.87628 200 61 90 -0.327096 0.508993 -0.7962
-0.603322 -0.096328 1.87628 237 118 120 0.542762 -0.078351 -0.836224
-0.693244 -0.091419 1.87628 189 46 81 -0.244235 0.453579 -0.857097
-0.60279 -0.095138 1.87628 237 118 120 0.542968 -0.449983 -0.709014
-0.691621 -0.090298 1.87628 189 46 81 -0.413475 0.429563 -0.802816
-0.600493 -0.093313 1.87628 237 118 120 0.3697 -0.820322 -0.436341
-0.672138 -0.061441 1.87628 197 55 85 -0.214034 0.408879 -0.887134
-0.690979 -0.087283 1.87628 190 47 83 -0.403293 0.016967 -0.914914
-0.599775 -0.092868 1.87628 237 118 120 0.335805 -0.938936 -0.075062
-0.670066 -0.060147 1.87628 195 55 83 -0.281097 0.434702 -0.855581
-0.59676 -0.091417 1.87628 236 116 119 0.420274 -0.907321 0.011783
-0.605805 -0.050825 1.87628 175 49 75 0.341119 0.834721 -0.432294
-0.691532 -0.084268 1.87628 193 45 84 -0.365364 0.125464 -0.922371
-0.593745 -0.090596 1.87628 236 116 119 0.318359 -0.944596 0.079917
-0.654047 -0.047029 1.87628 203 71 99 -0.251733 0.388771 -0.886278
-0.690229 -0.081856 1.87628 197 55 87 -0.335775 0.191264 -0.922319
-0.669123 -0.059559 1.87628 191 50 81 -0.34347 0.421888 -0.83907
-0.666404 -0.057131 1.87628 191 50 81 -0.371248 0.393178 -0.841181
-0.68979 -0.081252 1.87628 196 52 90 -0.319922 0.214703 -0.922796
-0.651032 -0.04525 1.87628 203 71 99 -0.170158 0.35016 -0.921105
-0.592762 -0.090298 1.87628 231 119 118 0.248441 -0.968313 0.02545
-0.666108 -0.056703 1.87628 191 50 81 -0.414412 0.28596 -0.863996
-0.68781 -0.078237 1.87628 204 66 98 -0.369206 0.308431 -0.876674
-0.64973 -0.045071 1.87628 198 72 99 -0.04582 0.362634 -0.930804
-0.648017 -0.044889 1.87628 201 71 99 -0.093633 0.370461 -0.924117
-0.59073 -0.089698 1.87628 234 118 119 0.422405 -0.887197 -0.185624
-0.645002 -0.04435 1.87628 193 65 95 -0.049252 0.2892 -0.956001
-0.664259 -0.054116 1.87628 203 66 95 -0.384478 0.281951 -0.879022
-0.687214 -0.077681 1.87628 199 63 95 -0.321101 0.385629 -0.864976
-0.587715 -0.088149 1.87628 235 119 120 0.473397 -0.797553 -0.373903
-0.641987 -0.044016 1.87628 196 73 100 0.083241 0.270214 -0.959195
-0.684271 -0.075222 1.87628 199 64 95 -0.319776 0.380977 -0.867525
-0.586644 -0.087283 1.87628 231 124 121 0.653401 -0.606611 -0.452869
-0.663093 -0.052829 1.87628 202 64 92 -0.354347 0.394933 -0.847624
-0.684199 -0.075149 1.87628 199 63 95 -0.358694 0.334272 -0.871551
-0.584712 -0.084268 1.87628 231 121 118 0.735286 -0.470914 -0.487437
-0.660994 -0.051101 1.87628 203 66 96 -0.343511 0.460654 -0.818412
-0.5847 -0.084249 1.87628 228 122 118 0.692395 -0.472163 -0.545574
-0.582614 -0.081252 1.87628 224 119 116 0.708679 -0.411331 -0.57322
-0.660078 -0.050471 1.87628 202 65 94 -0.294301 0.555196 -0.77791
-0.581684 -0.079298 1.87628 222 115 115 0.799672 -0.316371 -0.510327
-0.657063 -0.04897 1.87628 201 67 96 -0.271969 0.539221 -0.797041
-0.655381 -0.048086 1.87628 201 68 96 -0.308493 0.461957 -0.831522
-0.64184 -0.048086 1.87628 192 52 88 0.205535 -0.112225 -0.972194
-0.639208 -0.045071 1.87628 192 52 88 0.150981 0.040338 -0.987713
-0.581266 -0.078237 1.87628 219 104 109 0.841806 -0.210074 -0.497225
-0.641987 -0.051909 1.87628 191 57 88 0.180375 0.565378 -0.804868
-0.580592 -0.075222 1.87628 216 99 106 0.799303 -0.04652 -0.599125
-0.642733 -0.051101 1.87628 191 57 88 0.344245 0.016514 -0.938735
-0.641987 -0.050135 1.87628 192 57 91 0.281286 -0.105973 -0.953755
-0.636038 -0.048086 1.87628 192 52 88 -0.27841 0.015944 -0.96033
-0.638972 -0.052857 1.87628 187 51 83 -0.216255 0.845361 -0.488465
-0.635957 -0.047734 1.87628 192 52 88 -0.175918 0.170782 -0.969477
-0.636149 -0.051101 1.87628 187 51 83 -0.397377 0.142829 -0.906472
-0.632942 -0.045426 1.87628 193 57 91 -0.251646 0.38268 -0.888949
-0.631995 -0.045071 1.87628 193 57 91 -0.087671 0.556207 -0.826406
-0.60279 -0.052132 1.87628 176 52 78 0.405367 0.843603 -0.352153
-0.605075 -0.051101 1.87628 176 52 78 0.354403 0.844633 -0.40124
-0.629926 -0.044629 1.87628 193 57 91 -0.155981 0.676929 -0.719331
-0.626911 -0.043919 1.87628 191 56 87 -0.058848 0.744925 -0.664548
-0.623896 -0.043838 1.87628 191 56 87 0.032272 0.775924 -0.63
-0.617866 -0.045136 1.87628 190 57 88 0.265669 0.714285 -0.64747
-0.618015 -0.045071 1.87628 190 57 88 0.23357 0.722657 -0.650548
-0.620881 -0.044156 1.87628 192 64 91 0.151842 0.783266 -0.602859
-0.614851 -0.046316 1.87628 187 53 83 0.282322 0.728933 -0.62366
-0.611836 -0.047634 1.87628 187 53 83 0.36028 0.741752 -0.565688
-0.599775 -0.100802 1.87628 184 102 103 0.23357 0.650548 -0.722657
-0.70229 -0.102358 1.87338 183 43 73 -0.469715 0.743303 -0.476307
-0.678169 -0.078237 1.87387 191 49 84 -0.211633 0.13211 -0.968379
-0.699275 -0.099343 1.87464 183 43 73 -0.563721 0.58065 -0.587421
-0.678169 -0.075222 1.8741 191 49 84 -0.213492 0.166341 -0.96268
-0.675153 -0.075222 1.87373 191 49 84 -0.15009 0.140167 -0.978686
-0.678169 -0.072207 1.87488 202 66 94 -0.294833 0.297767 -0.907969
-0.675153 -0.072207 1.87423 202 66 94 -0.239617 0.217709 -0.946143
-0.696259 -0.096328 1.87465 184 44 75 -0.516025 0.489305 -0.703063
-0.672138 -0.075222 1.87342 189 52 84 -0.136908 0.032813 -0.99004
-0.672138 -0.072207 1.87337 191 48 83 -0.143304 0.107177 -0.983858
-0.678169 -0.069192 1.87607 202 66 94 -0.278369 0.304603 -0.910894
-0.669123 -0.072207 1.87329 187 51 82 -0.071899 0.106137 -0.991749
-0.675153 -0.120449 1.87358 187 102 107 0.042743 -0.235699 -0.970886
-0.675153 -0.069192 1.87513 202 66 94 -0.30888 0.279602 -0.909074
-0.696259 -0.093313 1.87604 195 49 86 -0.407978 0.351705 -0.84253
-0.635957 -0.051101 1.87582 191 55 87 -0.602955 0.565798 -0.562421
-0.693244 -0.093313 1.8748 189 46 81 -0.425486 0.547999 -0.72018
-0.635957 -0.048086 1.87621 191 55 87 -0.504805 0.113617 -0.855724
-0.605805 -0.099343 1.87489 223 126 128 0.516145 -0.080603 -0.8527
-0.690229 -0.090298 1.87548 189 46 81 -0.568582 0.345037 -0.746769
-0.605805 -0.096328 1.87455 225 126 128 0.579071 -0.306378 -0.755519
-0.672138 -0.069192 1.87393 192 48 83 -0.234528 0.204703 -0.950312
-0.690229 -0.087283 1.87577 190 47 83 -0.515212 0.092767 -0.852027
-0.675153 -0.066177 1.87615 197 57 88 -0.401644 0.146181 -0.904054
-0.681184 -0.072207 1.87623 201 62 92 -0.383892 0.331473 -0.861831
-0.690229 -0.084268 1.87579 193 45 84 -0.350377 0.130533 -0.927468
-0.60279 -0.093313 1.87501 237 118 120 0.379686 -0.698557 -0.606512
-0.672138 -0.066177 1.87462 197 57 88 -0.288696 0.223915 -0.930869
-0.669123 -0.069192 1.8736 187 49 82 -0.096753 0.139754 -0.985448
-0.687214 -0.087283 1.87413 188 47 82 -0.408619 0.216848 -0.886571
-0.669123 -0.066177 1.8741 195 54 88 -0.193033 0.190407 -0.96254
-0.687214 -0.084268 1.87492 192 48 85 -0.311026 0.220132 -0.924556
-0.587715 -0.087283 1.87503 235 119 120 0.55157 -0.678985 -0.48451
-0.684199 -0.084268 1.87391 188 49 83 -0.314795 0.201864 -0.927445
-0.632942 -0.048086 1.87476 191 55 87 -0.436142 0.472079 -0.766108
-0.666108 -0.066177 1.87332 191 51 85 -0.184394 0.126692 -0.974653
-0.675153 -0.063162 1.87614 200 61 90 -0.322534 0.149601 -0.934661
-0.581684 -0.078237 1.87549 222 115 115 0.842564 -0.17746 -0.508521
-0.687214 -0.081252 1.87539 196 52 90 -0.308805 0.175867 -0.934725
-0.614851 -0.048086 1.87405 182 54 81 0.273257 0.772387 -0.573367
-0.581684 -0.075222 1.87464 215 98 105 0.833696 0.121185 -0.538763
-0.684199 -0.081252 1.87442 192 47 85 -0.230189 0.213844 -0.94936
-0.611836 -0.048086 1.87561 182 54 81 0.318994 0.774242 -0.546618
-0.672138 -0.063162 1.87556 204 67 96 -0.183898 0.324279 -0.927914
-0.687214 -0.078237 1.87603 204 66 98 -0.28725 0.230649 -0.929671
-0.608821 -0.051101 1.87379 179 49 77 0.371322 0.792474 -0.483843
-0.684199 -0.078237 1.87519 194 54 87 -0.26633 0.263482 -0.927171
-0.669123 -0.063162 1.87493 199 63 93 -0.228814 0.302717 -0.925206
-0.605805 -0.051101 1.87567 179 49 77 0.262306 0.868793 -0.419993
-0.681184 -0.081252 1.87408 189 51 83 -0.180041 0.230719 -0.956218
-0.666108 -0.063162 1.87401 193 54 88 -0.199272 0.262489 -0.944135
-0.654047 -0.048086 1.87583 203 71 99 -0.189053 0.388209 -0.901972
-0.651032 -0.048086 1.87534 203 71 99 -0.001207 0.273924 -0.961751
-0.669123 -0.060147 1.87597 195 55 83 -0.269588 0.334407 -0.903047
-0.678169 -0.081252 1.87328 189 52 83 -0.232432 0.207966 -0.950119
-0.666108 -0.060147 1.87511 197 60 92 -0.272734 0.307737 -0.911545
-0.648017 -0.048086 1.87553 198 72 99 0.017324 0.183633 -0.982842
-0.681184 -0.078237 1.8745 189 52 83 -0.215631 0.160743 -0.963153
-0.648017 -0.045071 1.87621 198 72 99 -0.047672 0.231027 -0.971779
-0.72038 -0.126479 1.87605 201 78 95 -0.680148 -0.111135 -0.724602
-0.663093 -0.063162 1.87378 189 51 84 -0.129733 0.187672 -0.973627
-0.684199 -0.075222 1.87625 199 64 95 -0.348867 0.312621 -0.883493
-0.645002 -0.048086 1.87536 192 66 95 0.122573 0.108293 -0.986534
-0.663093 -0.060147 1.87434 201 66 97 -0.211319 0.211319 -0.9543
-0.645002 -0.045071 1.87607 192 66 95 0.057677 0.161261 -0.985225
-0.681184 -0.075222 1.87505 194 54 88 -0.316963 0.267301 -0.909992
-0.641987 -0.048086 1.87621 190 54 89 0.185607 0.061071 -0.980724
-0.641987 -0.045071 1.8761 190 54 89 0.044148 0.00924 -0.998982
-0.717365 -0.129494 1.87543 205 93 105 -0.487518 -0.541128 -0.685206
-0.660078 -0.060147 1.87353 191 53 87 -0.182166 0.174414 -0.967675
-0.71435 -0.129494 1.87355 204 97 108 -0.381288 -0.645384 -0.66189
-0.657063 -0.060147 1.87332 190 53 85 -0.080212 0.122061 -0.989276
-0.717365 -0.126479 1.87327 205 93 105 -0.540764 -0.483841 -0.688093
