ply
format ascii 1.0
element vertex 737
property float x
property float y
property float z
property uchar red
property uchar green
property uchar blue
property float nx
property float ny
property float nz
end_header
-0.620881 0.576456 1.87929 168 57 75 0.418561 -0.706424 -0.570764
-0.617866 0.578514 1.87929 168 53 75 0.463758 -0.709766 -0.530246
-0.660078 0.636996 1.87929 158 47 34 0.173842 0.283349 -0.943129
-0.657063 0.636241 1.87929 147 32 28 0.275109 0.325128 -0.904769
-0.657475 0.636348 1.87929 147 32 28 0.12711 0.389712 -0.912122
-0.626854 0.606197 1.87929 190 43 86 0.580444 -0.164334 -0.797545
-0.654047 0.633571 1.87929 150 29 36 0.173057 0.245499 -0.953825
-0.624332 0.609212 1.87929 193 46 88 0.621574 -0.236417 -0.746828
-0.624641 0.612227 1.87929 172 39 73 0.698943 0.265885 -0.663916
-0.626911 0.614658 1.87929 174 39 75 0.579542 0.5863 -0.566025
-0.627706 0.615242 1.87929 174 39 75 0.641226 0.590736 -0.489755
-0.651032 0.632114 1.87929 177 41 76 -0.154171 0.304249 -0.940034
-0.653913 0.633333 1.87929 177 41 76 0.09505 0.193804 -0.976425
-0.649773 0.633333 1.87929 175 41 74 -0.321186 0.391878 -0.862132
-0.641987 0.63279 1.87929 171 43 71 0.271441 0.449334 -0.851128
-0.642668 0.633333 1.87929 171 43 71 0.357449 0.599012 -0.71653
-0.648017 0.634294 1.87929 155 33 42 -0.018138 0.668315 -0.743657
-0.645002 0.634332 1.87929 167 42 61 0.152688 0.748323 -0.645523
-0.635957 0.628299 1.87929 171 47 77 0.564979 0.356572 -0.74408
-0.637978 0.630318 1.87929 171 47 77 0.38387 0.405986 -0.829349
-0.638972 0.631125 1.87929 169 46 74 0.31356 0.530027 -0.787878
-0.620881 0.579061 1.87658 166 47 73 0.43228 -0.629226 -0.645917
-0.617866 0.579061 1.87891 166 47 73 0.566393 -0.370522 -0.736147
-0.617866 0.582076 1.8774 166 47 73 0.625945 -0.185182 -0.757562
-0.617866 0.585091 1.87692 166 47 73 0.71203 0.123896 -0.691132
-0.617866 0.588106 1.87847 162 38 65 0.692254 0.351855 -0.630066
-0.620881 0.591121 1.87906 163 39 65 0.647869 0.604343 -0.46372
-0.635957 0.56097 1.879 166 57 57 0.61573 -0.668839 -0.416572
-0.672138 0.639363 1.87744 165 47 38 0.372531 0.070767 -0.925318
-0.623896 0.594136 1.87758 163 38 65 0.657626 0.450131 -0.604079
-0.629926 0.597151 1.87631 166 38 69 0.023155 0.009061 -0.999691
-0.629926 0.570015 1.87875 166 55 42 0.763608 -0.337408 -0.550508
-0.669123 0.639363 1.87831 165 47 38 0.146768 0.030719 -0.988694
-0.629926 0.57303 1.87642 166 55 40 0.554237 -0.638468 -0.534022
-0.672138 0.642378 1.8773 165 47 38 0.279055 -0.01844 -0.960098
-0.629926 0.600166 1.8763 173 36 72 0.496921 0.196667 -0.845217
-0.626911 0.600166 1.87824 173 36 72 0.545366 0.329794 -0.770592
-0.629926 0.603182 1.87706 171 33 69 0.602865 0.070167 -0.794751
-0.623896 0.576045 1.87732 167 62 74 0.525756 -0.751782 -0.398002
-0.669123 0.642378 1.87787 165 47 38 0.174307 -0.040945 -0.98384
-0.666108 0.639363 1.87809 165 47 38 0.186135 0.079077 -0.979337
-0.666108 0.642378 1.87835 165 47 38 0.18712 0.022082 -0.982089
-0.626911 0.603182 1.87914 171 33 69 0.550678 0.159682 -0.819302
-0.672138 0.645393 1.87729 165 47 38 0.238543 0.045262 -0.970077
-0.669123 0.645393 1.87792 165 47 38 0.194655 0.031853 -0.980354
-0.666108 0.645393 1.8785 165 47 38 0.183805 -0.003425 -0.982957
-0.672138 0.648409 1.8775 165 47 38 0.21117 0.0778 -0.974348
-0.669123 0.648409 1.87807 165 47 38 0.17548 0.063268 -0.982448
-0.666108 0.648409 1.87853 165 47 38 0.126266 0.048914 -0.99079
-0.657063 0.627303 1.87645 174 39 68 0.350437 0.267633 -0.897533
-0.654047 0.627303 1.8774 174 39 68 0.036237 0.444234 -0.895178
-0.669123 0.633333 1.8768 172 58 37 0.161809 0.284185 -0.945017
-0.666108 0.633333 1.87717 154 42 28 0.086177 0.330125 -0.939995
-0.672138 0.636348 1.87694 171 54 35 0.317415 0.185974 -0.929872
-0.669123 0.636348 1.87779 177 58 37 0.17985 0.252872 -0.950636
-0.666108 0.636348 1.87815 176 60 40 0.079792 0.15363 -0.984901
-0.660078 0.630318 1.87648 144 29 22 0.184039 0.330146 -0.925815
-0.663093 0.633333 1.87735 142 29 20 0.08533 0.383309 -0.91967
-0.660078 0.633333 1.87762 144 29 22 0.138257 0.372875 -0.917523
-0.657063 0.630318 1.87712 160 34 51 0.301955 0.278615 -0.9117
-0.654047 0.630318 1.87874 171 37 68 0.184209 0.327639 -0.926671
-0.657063 0.633333 1.87822 146 29 29 0.288438 0.300151 -0.909238
-0.654047 0.633333 1.87924 161 34 53 0.308724 0.239799 -0.920427
-0.663093 0.636348 1.8785 166 56 38 0.168447 0.262777 -0.950039
-0.660078 0.636348 1.879 147 35 23 0.115127 0.395314 -0.911303
-0.675153 0.645393 1.87658 165 47 38 0.233532 0.089626 -0.96821
-0.672138 0.651424 1.87778 165 47 38 0.188071 0.132533 -0.973172
-0.669123 0.651424 1.87835 165 47 38 0.145117 0.097144 -0.984634
-0.666108 0.651424 1.87874 165 47 38 0.128059 0.085764 -0.988051
-0.660078 0.642378 1.87901 180 61 40 0.001073 -0.10407 -0.994569
-0.663093 0.645393 1.87887 177 58 36 0.08633 -0.038248 -0.995532
-0.660078 0.645393 1.87893 179 60 38 0.067203 -0.026668 -0.997383
-0.663093 0.648409 1.87884 172 56 37 0.106381 0.045912 -0.993265
-0.660078 0.648409 1.8792 172 56 37 0.089438 0.047479 -0.99486
-0.663093 0.651424 1.87913 172 56 37 0.113293 0.092269 -0.989268
-0.629926 0.606197 1.87701 173 58 88 0.572385 -0.238624 -0.784496
-0.651032 0.627303 1.87669 180 40 80 -0.156798 0.427238 -0.890439
-0.648017 0.627303 1.87667 180 40 80 -0.032014 0.205128 -0.978211
-0.641987 0.624287 1.87656 170 36 67 0.216162 0.333548 -0.917616
-0.645002 0.627303 1.87649 170 36 67 0.125207 0.196032 -0.972571
-0.641987 0.627303 1.87733 170 36 67 0.272201 0.238352 -0.932253
-0.635957 0.621272 1.87728 167 39 70 0.428991 0.416137 -0.801746
-0.632942 0.618257 1.8766 163 39 67 0.637947 0.573984 -0.513387
-0.632942 0.621272 1.87897 164 40 67 0.434316 0.530096 -0.728263
-0.638972 0.624287 1.87709 175 45 78 0.264443 0.380978 -0.88596
-0.635957 0.624287 1.87836 175 48 79 0.387567 0.293335 -0.873926
-0.638972 0.627303 1.87827 176 43 78 0.262293 0.262293 -0.928658
-0.635957 0.627303 1.87894 175 45 78 0.33835 0.207007 -0.917969
-0.626911 0.606197 1.87926 178 34 75 0.571927 -0.224741 -0.788918
-0.626911 0.609212 1.87743 195 46 91 0.56172 -0.255043 -0.787034
-0.626911 0.612227 1.87699 172 39 73 0.654558 0.29431 -0.696373
-0.651032 0.630318 1.87861 177 41 76 -0.235276 0.462962 -0.854583
-0.648017 0.630318 1.87708 181 42 80 -0.192535 0.316207 -0.928947
-0.648017 0.633333 1.87838 175 41 74 -0.208705 0.475968 -0.85434
-0.645002 0.630318 1.87698 181 43 82 0.162068 0.258505 -0.952318
-0.641987 0.630318 1.8781 172 37 72 0.307094 0.289462 -0.90659
-0.645002 0.633333 1.87813 169 39 66 0.137686 0.476828 -0.868146
-0.638972 0.630318 1.87895 171 39 74 0.262266 0.308634 -0.914309
-0.617866 0.590896 1.88231 160 36 63 0.649273 0.685073 -0.330332
-0.618063 0.591121 1.88231 160 36 63 0.619945 0.650023 -0.439476
-0.629926 0.62157 1.88231 173 50 79 0.654312 0.492837 -0.573574
-0.614414 0.579061 1.88231 169 44 72 0.687031 -0.463035 -0.559988
-0.63206 0.624287 1.88231 173 50 79 0.660951 0.499497 -0.560042
-0.613658 0.582076 1.88231 169 44 72 0.826397 -0.081637 -0.557138
-0.632942 0.625455 1.88231 175 51 81 0.71149 0.478214 -0.514872
-0.641987 0.635909 1.88231 168 47 74 0.254797 0.672601 -0.694757
-0.613594 0.585091 1.88231 169 42 72 0.865446 0.207767 -0.455891
-0.614851 0.588078 1.88231 164 38 67 0.75621 0.387088 -0.52755
-0.614882 0.588106 1.88231 164 38 67 0.656013 0.656013 -0.373221
-0.638972 0.634764 1.88231 168 47 74 0.39138 0.658905 -0.642391
-0.620862 0.594136 1.88231 142 25 46 0.738617 0.628376 -0.244106
-0.620881 0.594163 1.88231 122 13 29 0.825866 0.482406 -0.291941
-0.63686 0.633333 1.88231 168 47 74 0.506517 0.634408 -0.583924
-0.622539 0.597151 1.88231 122 13 29 0.837054 0.365917 -0.406749
-0.634914 0.56097 1.88231 166 57 57 0.793005 -0.55931 -0.241485
-0.623658 0.600166 1.88231 160 32 62 0.857113 0.160249 -0.489569
-0.651032 0.639761 1.88231 147 35 26 0.302952 0.354197 -0.88474
-0.632942 0.563131 1.88231 166 57 57 0.700616 -0.678771 -0.220015
-0.62342 0.603182 1.88231 160 32 62 0.79349 -0.129035 -0.594747
-0.631983 0.563985 1.88231 166 57 57 0.812629 -0.567808 -0.131259
-0.630059 0.567 1.88231 166 57 57 0.836036 -0.536517 -0.114864
-0.629926 0.56718 1.88231 166 55 42 0.876602 -0.430115 -0.215802
-0.628237 0.570015 1.88231 167 59 50 0.827633 -0.519748 -0.211862
-0.633949 0.627303 1.88231 175 51 81 0.810166 0.331359 -0.483563
-0.626911 0.572499 1.88231 167 59 50 0.820734 -0.530344 -0.212443
-0.626287 0.57303 1.88231 164 64 58 0.599172 -0.779077 -0.184478
-0.62299 0.606197 1.88231 181 38 79 0.783493 -0.085446 -0.615498
-0.623896 0.574354 1.88231 165 61 71 0.422174 -0.886712 -0.188444
-0.620881 0.575583 1.88231 168 55 75 0.359831 -0.929674 -0.078922
-0.623896 0.614294 1.88231 168 38 68 0.707278 0.474292 -0.524218
-0.6535 0.642378 1.88231 147 35 26 0.391376 0.157974 -0.90657
-0.624678 0.615242 1.88231 168 38 68 0.583294 0.610345 -0.535954
-0.650069 0.639363 1.88231 147 35 26 0.252828 0.4345 -0.864458
-0.623122 0.612227 1.88231 173 37 72 0.866618 0.284811 -0.409702
-0.653097 0.645393 1.88231 147 35 26 0.404906 -0.161676 -0.899951
-0.626911 0.617184 1.88231 184 43 82 0.579522 0.620071 -0.528835
-0.627982 0.618257 1.88231 184 43 82 0.631236 0.431373 -0.644561
-0.651032 0.648173 1.88231 179 60 39 0.495751 -0.283063 -0.821039
-0.619095 0.576045 1.88231 168 55 75 0.304116 -0.92377 -0.232727
-0.629705 0.621272 1.88231 184 43 82 0.669676 0.398498 -0.626684
-0.650843 0.648409 1.88231 179 60 39 0.690759 -0.092395 -0.717158
-0.65073 0.651424 1.88231 179 60 39 0.575483 -0.081802 -0.813713
-0.648017 0.638284 1.88231 151 32 34 0.197271 0.507482 -0.838776
-0.643174 0.636348 1.88231 167 42 61 0.257905 0.640808 -0.723084
-0.645002 0.637135 1.88231 167 42 61 0.2097 0.552567 -0.806657
-0.651032 0.654105 1.88231 148 50 52 0.415243 0.083597 -0.905861
-0.617866 0.576389 1.88231 168 54 75 0.410764 -0.826286 -0.385389
-0.65116 0.654439 1.88231 148 50 52 0.409814 0.130971 -0.902717
-0.635957 0.632367 1.88231 162 49 70 0.611799 0.517417 -0.598316
-0.652242 0.657454 1.88231 148 50 52 0.425614 0.147603 -0.892786
-0.614851 0.578474 1.88231 171 54 76 0.532654 -0.692951 -0.4859
-0.634752 0.630318 1.88231 168 48 75 0.837154 0.369102 -0.403656
-0.614851 0.579061 1.88183 169 46 72 0.73306 -0.349463 -0.583522
-0.614851 0.582076 1.88016 169 46 72 0.85111 -0.142096 -0.505392
-0.663093 0.639363 1.87933 178 61 41 0.10106 0.043311 -0.993937
-0.614851 0.585091 1.88014 169 44 72 0.805804 0.20642 -0.555041
-0.663093 0.642378 1.8794 178 61 41 0.012934 -0.006964 -0.999892
-0.660078 0.639363 1.87975 179 60 38 0.189804 -0.019795 -0.981622
-0.657063 0.639363 1.8807 167 55 37 0.279629 0.19147 -0.940822
-0.623896 0.597151 1.87987 166 38 69 0.813336 0.328188 -0.480392
-0.657063 0.642378 1.88072 167 55 37 0.451504 -0.09086 -0.887631
-0.620881 0.594136 1.88226 139 22 43 0.732446 0.497666 -0.464599
-0.632942 0.563985 1.87984 166 57 57 0.716784 -0.650327 -0.251586
-0.654047 0.639363 1.88137 157 47 33 0.225723 0.332115 -0.915832
-0.623896 0.600166 1.88188 173 36 72 0.800883 0.183884 -0.569888
-0.654047 0.642378 1.88205 157 47 33 0.353296 0.056475 -0.933805
-0.623896 0.603182 1.88162 176 36 76 0.690123 0.012548 -0.723583
-0.626911 0.57303 1.88044 167 59 50 0.676921 -0.698909 -0.230876
-0.657063 0.636348 1.87934 147 31 30 0.204272 0.338548 -0.918509
-0.657063 0.645393 1.88 169 55 37 0.470048 -0.106506 -0.876192
-0.654047 0.636348 1.88002 145 30 29 0.201996 0.348121 -0.915429
-0.654047 0.645393 1.88187 177 62 40 0.454005 -0.111733 -0.883966
-0.641987 0.633333 1.87976 168 47 74 0.297035 0.640633 -0.708068
-0.620881 0.576045 1.88032 168 55 75 0.397225 -0.85782 -0.326126
-0.660078 0.651424 1.87939 172 56 37 0.145117 0.097144 -0.984634
-0.657063 0.648409 1.87998 172 56 37 0.356749 -0.029622 -0.93373
-0.638972 0.633333 1.8809 168 47 74 0.372926 0.599639 -0.708067
-0.654047 0.648409 1.88124 172 56 37 0.34104 -0.142215 -0.929229
-0.657063 0.651424 1.87989 172 56 37 0.236016 0.058077 -0.970012
-0.654047 0.651424 1.88072 172 56 37 0.349319 -0.006305 -0.936983
-0.651032 0.639363 1.88203 147 35 26 0.209209 0.396472 -0.893891
-0.651032 0.648409 1.88213 179 60 39 0.316255 -0.068978 -0.946163
-0.651032 0.651424 1.88207 179 60 39 0.395291 -0.032832 -0.917969
-0.629926 0.618257 1.88047 163 39 67 0.626373 0.46852 -0.623014
-0.654047 0.654439 1.88106 148 50 52 0.275695 0.12004 -0.953721
-0.629926 0.621272 1.88211 164 40 70 0.683424 0.355643 -0.637534
-0.632942 0.624287 1.88106 174 53 81 0.710496 0.454252 -0.537448
-0.654047 0.657454 1.8814 148 50 52 0.289522 0.141395 -0.94667
-0.623896 0.606197 1.88131 177 35 73 0.68406 -0.216593 -0.696526
-0.623896 0.609212 1.87989 196 49 92 0.869881 -0.068199 -0.488525
-0.623896 0.612227 1.88048 178 40 78 0.805635 0.314973 -0.501741
-0.626911 0.615242 1.88013 166 38 67 0.59268 0.59268 -0.5454
-0.651032 0.633333 1.87962 177 41 76 0.087643 0.304789 -0.948379
-0.651032 0.636348 1.8808 158 33 48 0.122879 0.430783 -0.894051
-0.648017 0.636348 1.88118 155 33 42 0.132261 0.595917 -0.792079
-0.645002 0.636348 1.88175 167 42 61 0.108027 0.711792 -0.694034
-0.635957 0.630318 1.8806 169 46 74 0.64303 0.435924 -0.629668
-0.640243 0.55494 1.88231 166 57 57 0.671843 -0.601825 -0.43178
-0.635957 0.559471 1.88231 166 57 57 0.703405 -0.621803 -0.344358
-0.641987 0.553253 1.88231 130 66 48 0.513271 -0.641168 -0.570488
-0.678169 0.651424 1.87651 169 44 49 0.202345 0.168403 -0.964726
-0.641987 0.55494 1.88016 166 57 57 0.519186 -0.696143 -0.495814
-0.672138 0.657454 1.87855 148 50 52 0.144121 0.161666 -0.976265
-0.666108 0.657454 1.87932 148 50 52 0.124178 0.156144 -0.979897
-0.660078 0.657454 1.88005 148 50 52 0.165132 0.152527 -0.974406
-0.660078 0.663484 1.88136 148 50 52 0.146126 0.213369 -0.965982
-0.611836 0.579133 1.88532 163 41 66 0.777578 -0.158535 -0.608473
-0.611431 0.582076 1.88532 163 41 66 0.95532 -0.078643 -0.28492
-0.611836 0.583761 1.88532 162 39 64 0.883813 0.123819 -0.451157
-0.632942 0.62886 1.88532 164 40 63 0.747996 0.419207 -0.514556
-0.612294 0.585091 1.88532 161 32 60 0.866487 0.291886 -0.404972
-0.633783 0.630318 1.88532 164 40 63 0.790978 0.368908 -0.488119
-0.613302 0.588106 1.88532 161 32 60 0.815613 0.429354 -0.387855
-0.631739 0.627303 1.88532 164 40 63 0.665752 0.471225 -0.578551
-0.614851 0.589754 1.88532 158 32 58 0.595811 0.74356 -0.303526
-0.617442 0.591121 1.88532 158 32 58 0.474112 0.842355 -0.256235
-0.634942 0.633333 1.88532 164 40 63 0.695507 0.213164 -0.686171
-0.635957 0.636351 1.88532 146 32 29 0.384518 0.335102 -0.860147
-0.617866 0.591451 1.88532 153 33 55 0.72627 0.551701 -0.410071
-0.638585 0.639363 1.88532 146 32 29 0.352824 0.383909 -0.853305
-0.62976 0.567 1.88532 164 57 45 0.858055 -0.510383 -0.057018
-0.619637 0.594136 1.88532 153 33 55 0.759195 0.531599 -0.375533
-0.627916 0.570015 1.88532 164 57 45 0.802269 -0.583603 -0.125585
-0.635955 0.636348 1.88532 157 39 55 0.619184 0.239836 -0.747723
-0.626911 0.571073 1.88532 164 57 45 0.717307 -0.644145 -0.26561
-0.620881 0.595896 1.88532 137 24 43 0.778742 0.493797 -0.386943
-0.621477 0.597151 1.88532 137 24 43 0.893599 0.278041 -0.352384
-0.625275 0.57303 1.88532 164 57 45 0.686801 -0.651081 -0.323105
-0.648017 0.641885 1.88532 154 44 29 0.360004 0.575029 -0.734669
-0.621949 0.600166 1.88532 115 10 25 0.870606 -0.004 -0.491965
-0.62092 0.603182 1.88532 148 23 50 0.784709 -0.244929 -0.569421
-0.623896 0.574144 1.88532 165 62 69 0.476455 -0.8594 -0.185535
-0.648368 0.642378 1.88532 154 44 29 0.537312 0.081238 -0.839462
-0.620881 0.575583 1.88532 165 57 71 0.320903 -0.938336 -0.128632
-0.648588 0.645393 1.88532 149 39 26 0.594062 -0.049388 -0.802901
-0.618571 0.576045 1.88532 166 57 73 0.200998 -0.966087 -0.162095
-0.645002 0.64055 1.88532 144 35 22 0.171923 0.6314 -0.756159
-0.629926 0.624899 1.88532 168 37 67 0.737882 0.463859 -0.490271
-0.617866 0.576152 1.88532 164 57 73 0.202568 -0.976011 -0.0798
-0.620881 0.603844 1.88532 180 44 78 0.783814 -0.070471 -0.616984
-0.641987 0.640273 1.88532 144 35 22 0.091133 0.577176 -0.811518
-0.648017 0.647869 1.88532 176 62 41 0.491786 -0.203031 -0.846714
-0.64765 0.648409 1.88532 170 59 40 0.34453 -0.220557 -0.912499
-0.614851 0.576746 1.88532 170 56 80 0.454499 -0.852377 -0.258621
-0.645676 0.651424 1.88532 179 63 43 0.332206 -0.209589 -0.919626
-0.611869 0.579061 1.88532 168 54 75 0.551095 -0.69761 -0.457859
-0.644031 0.651424 1.88532 170 59 40 -0.014539 -0.142033 -0.989755
-0.638972 0.639646 1.88532 143 33 22 0.069067 0.531391 -0.844306
-0.620801 0.606197 1.88532 187 46 84 0.769822 -0.058558 -0.635567
-0.645002 0.652016 1.88532 178 60 38 0.14327 -0.183842 -0.972459
-0.620431 0.609212 1.88532 187 46 84 0.788696 0.012431 -0.614658
-0.620881 0.610568 1.88532 186 45 84 0.795837 0.368175 -0.480718
-0.621892 0.612227 1.88532 186 45 84 0.846381 0.451712 -0.282127
-0.62321 0.615242 1.88532 169 36 67 0.872809 0.470195 -0.130849
-0.623896 0.616352 1.88532 161 34 58 0.783691 0.609538 -0.119546
-0.625548 0.618257 1.88532 161 34 58 0.788075 0.563357 -0.248127
-0.626911 0.620868 1.88532 167 39 69 0.773535 0.431551 -0.464121
-0.627103 0.621272 1.88532 167 39 69 0.725356 0.546909 -0.41803
-0.629543 0.624287 1.88532 168 34 64 0.793604 0.549418 -0.261404
-0.611836 0.582076 1.88471 163 41 66 0.804402 0.001366 -0.594083
-0.614851 0.588106 1.88235 158 32 58 0.699233 0.586827 -0.408299
-0.648017 0.639363 1.88309 148 33 30 0.325448 0.600702 -0.730233
-0.617866 0.591121 1.88363 158 32 58 0.67296 0.698176 -0.244283
-0.641987 0.636348 1.88271 147 31 29 0.272335 0.555689 -0.785521
-0.645002 0.639363 1.88394 146 31 29 0.212221 0.621173 -0.754392
-0.641987 0.639363 1.88475 147 31 29 0.199409 0.549517 -0.811337
-0.635957 0.633333 1.88351 156 37 49 0.694074 0.483343 -0.533517
-0.629926 0.624287 1.88474 170 37 70 0.655113 0.513649 -0.554068
-0.632942 0.627303 1.88396 170 40 73 0.792474 0.371322 -0.483843
-0.620881 0.606197 1.88522 180 44 78 0.805706 -0.076118 -0.587404
-0.620881 0.609212 1.88471 196 51 92 0.807627 0.015186 -0.589498
-0.623896 0.615242 1.88341 181 42 76 0.75985 0.514737 -0.397083
-0.626911 0.618257 1.88341 162 33 63 0.696722 0.430671 -0.573673
-0.629926 0.567 1.88347 160 45 53 0.845769 -0.527362 -0.081023
-0.638972 0.636348 1.88377 162 41 61 0.336687 0.502637 -0.79624
-0.635957 0.636348 1.88532 157 42 55 0.402922 0.470884 -0.784807
-0.638972 0.639363 1.88522 155 38 49 0.142375 0.444383 -0.884451
-0.651032 0.642378 1.88357 154 44 29 0.489392 0.219696 -0.843937
-0.651032 0.645393 1.88331 168 57 39 0.585743 -0.174058 -0.791586
-0.648017 0.648409 1.88509 176 62 41 0.632256 -0.155423 -0.759009
-0.648017 0.651424 1.88414 181 64 42 0.502985 -0.193687 -0.842313
-0.651032 0.654439 1.88236 178 60 38 0.413371 0.143472 -0.899189
-0.648017 0.654439 1.88375 178 60 38 0.381999 -0.057233 -0.922389
-0.651032 0.657454 1.88284 178 60 38 0.278915 0.043776 -0.959318
-0.611248 0.579061 1.88834 162 39 64 0.859254 -0.384119 -0.337839
-0.610556 0.582076 1.88834 162 39 64 0.891379 -0.050353 -0.450453
-0.610561 0.585091 1.88834 161 39 64 0.88141 0.211835 -0.422188
-0.611836 0.587874 1.88834 158 32 58 0.836599 0.470296 -0.280936
-0.612075 0.588106 1.88834 158 32 58 0.719567 0.667179 -0.192604
-0.614851 0.590785 1.88834 158 32 59 0.656906 0.710725 -0.251682
-0.615335 0.591121 1.88834 158 32 59 0.602446 0.678789 -0.419886
-0.617866 0.594238 1.88834 137 24 43 0.72407 0.367756 -0.583506
-0.619715 0.597151 1.88834 137 24 43 0.731258 0.292823 -0.616049
-0.629609 0.567 1.88834 164 57 45 0.777918 -0.619697 -0.104015
-0.626975 0.570015 1.88834 164 57 45 0.730563 -0.642958 -0.229963
-0.626911 0.570065 1.88834 164 57 45 0.630276 -0.737156 -0.243623
-0.623896 0.572457 1.88834 164 57 43 0.633643 -0.701707 -0.325735
-0.623288 0.57303 1.88834 165 62 59 0.467844 -0.771047 -0.431982
-0.620881 0.574667 1.88834 164 64 69 0.39569 -0.842992 -0.36441
-0.617866 0.57568 1.88834 162 59 70 0.260428 -0.926442 -0.271813
-0.615972 0.576045 1.88834 168 56 76 0.318471 -0.939149 -0.128743
-0.614851 0.576372 1.88834 168 56 76 0.428192 -0.903072 0.033348
-0.611836 0.578189 1.88834 166 58 75 0.595035 -0.789883 -0.148384
-0.629926 0.627911 1.88834 167 39 65 0.840124 0.290394 -0.458108
-0.630849 0.630318 1.88834 167 39 65 0.738238 0.236675 -0.631656
-0.630565 0.633333 1.88834 154 38 46 0.61719 0.037959 -0.785898
-0.618669 0.603182 1.88834 160 28 59 0.755844 -0.21263 -0.619264
-0.617778 0.594136 1.88834 163 31 59 0.697386 0.554247 -0.454383
-0.630708 0.636348 1.88834 140 30 26 0.550079 0.212983 -0.807497
-0.618245 0.606197 1.88834 178 38 75 0.822657 -0.063717 -0.564957
-0.632514 0.639363 1.88834 142 33 26 0.640165 0.398655 -0.656706
-0.618051 0.609212 1.88834 190 48 87 0.827435 0.188396 -0.529016
-0.620584 0.612227 1.88834 178 37 72 0.757562 0.625945 -0.185182
-0.632942 0.639934 1.88834 165 59 41 0.538035 0.195511 -0.819935
-0.620881 0.612705 1.88834 177 39 73 0.779512 0.599507 -0.18153
-0.623025 0.615242 1.88834 177 39 73 0.789021 0.580658 -0.200702
-0.623896 0.616208 1.88834 163 34 61 0.77392 0.623558 -0.11056
-0.634736 0.642378 1.88834 165 59 41 0.334155 0.080567 -0.939068
-0.625405 0.618257 1.88834 163 34 61 0.877161 0.450986 -0.164924
-0.62684 0.621272 1.88834 163 30 55 0.865927 0.415463 -0.278497
-0.626911 0.621403 1.88834 162 27 53 0.849276 0.463659 -0.252488
-0.628358 0.624287 1.88834 162 27 53 0.865747 0.384606 -0.32025
-0.629573 0.627303 1.88834 165 31 59 0.842992 0.36441 -0.39569
-0.611836 0.579061 1.88542 162 39 64 0.819979 -0.528771 -0.219172
-0.611836 0.585091 1.88607 161 39 64 0.836384 0.32361 -0.442424
-0.632942 0.630318 1.8861 164 40 63 0.636913 0.178702 -0.749938
-0.617866 0.594136 1.88821 137 24 43 0.71993 0.50711 -0.473857
-0.629926 0.627303 1.8876 167 39 65 0.783378 0.400609 -0.475217
-0.632942 0.633333 1.88709 166 42 70 0.544233 0.146809 -0.825989
-0.620881 0.597151 1.88661 137 24 43 0.821272 0.19583 -0.535876
-0.620881 0.600166 1.88735 116 11 26 0.824307 -0.15298 -0.545082
-0.635957 0.639363 1.88629 155 38 49 0.405989 0.355828 -0.84176
-0.620881 0.603182 1.88536 147 23 47 0.760926 -0.31238 -0.568692
-0.632942 0.636348 1.88732 150 36 45 0.514742 0.171581 -0.84
-0.632942 0.639363 1.888 143 34 25 0.463831 0.238759 -0.853144
-0.620881 0.612227 1.88754 181 41 77 0.735176 0.572166 -0.363513
-0.648017 0.642378 1.88553 154 44 29 0.343611 0.092254 -0.93457
-0.626911 0.621272 1.88734 163 34 61 0.858559 0.495378 -0.132198
-0.648017 0.645393 1.88566 154 44 29 0.333605 -0.021564 -0.942466
-0.645002 0.642378 1.88656 144 35 22 0.238437 0.189942 -0.952402
-0.641987 0.642378 1.88694 144 35 22 0.05439 0.383387 -0.921985
-0.623896 0.57303 1.88772 164 57 43 0.595808 -0.701436 -0.391154
-0.645002 0.645393 1.88657 144 34 22 0.262181 -0.102031 -0.95961
-0.641987 0.645393 1.88735 142 35 22 0.094542 -0.182944 -0.978567
-0.617866 0.576045 1.88608 162 59 70 0.231413 -0.95871 -0.165295
-0.645002 0.648409 1.88597 161 52 35 0.141799 -0.225057 -0.963972
-0.641987 0.648409 1.88605 157 50 34 -0.023721 -0.303376 -0.952576
-0.645002 0.651424 1.88548 176 64 42 0.001133 -0.175594 -0.984462
-0.638972 0.642378 1.88686 143 36 24 0.204565 0.375761 -0.903857
-0.635957 0.642378 1.88805 141 33 23 0.227464 0.156464 -0.961134
-0.638972 0.645393 1.88745 141 36 23 0.012746 -0.191195 -0.981469
-0.636487 0.55494 1.88834 160 45 53 0.708898 -0.49873 -0.49873
-0.635957 0.555778 1.88834 160 45 53 0.771631 -0.539658 -0.336682
-0.633217 0.56097 1.88834 160 45 53 0.859151 -0.453062 -0.237895
-0.629926 0.566311 1.88834 160 45 53 0.856983 -0.508524 -0.083574
-0.617866 0.574507 1.89135 167 61 76 0.557406 -0.766233 -0.319665
-0.616274 0.576045 1.89135 167 61 76 0.658376 -0.752627 0.009702
-0.614851 0.577303 1.89135 167 61 76 0.361372 -0.924727 0.119541
-0.611836 0.577784 1.89135 167 61 76 0.392924 -0.919416 0.016858
-0.609668 0.579061 1.89135 168 55 74 0.571157 -0.805016 -0.160404
-0.628167 0.627303 1.89135 159 31 49 0.844659 0.213053 -0.491081
-0.628329 0.630318 1.89135 159 31 49 0.723559 -0.006944 -0.690228
-0.608821 0.580536 1.89135 163 44 66 0.865174 -0.272173 -0.421183
-0.628164 0.633333 1.89135 144 27 30 0.75923 0.01811 -0.65057
-0.608576 0.582076 1.89135 160 40 62 0.894799 -0.231439 -0.3818
-0.608821 0.58405 1.89135 159 40 62 0.865207 0.131442 -0.48388
-0.609398 0.585091 1.89135 159 40 62 0.76574 0.564313 -0.308534
-0.611836 0.587984 1.89135 160 38 61 0.763402 0.64443 -0.043906
-0.611946 0.588106 1.89135 160 38 61 0.798265 0.599762 -0.055297
-0.614137 0.591121 1.89135 160 38 61 0.780496 0.589606 -0.207824
-0.628653 0.636348 1.89135 139 30 23 0.724373 0.149714 -0.672956
-0.614851 0.592294 1.89135 161 32 58 0.845862 0.439228 -0.302648
-0.615767 0.594136 1.89135 161 32 58 0.80442 0.390168 -0.44797
-0.616741 0.597151 1.89135 163 32 58 0.864217 0.156466 -0.478171
-0.61678 0.600166 1.89135 167 34 64 0.892387 0.039152 -0.449569
-0.616816 0.603182 1.89135 164 29 58 0.924178 0.06821 -0.375823
-0.629464 0.567 1.89135 171 57 40 0.822323 -0.567361 -0.043428
-0.617866 0.609877 1.89135 174 34 68 0.779077 0.599172 -0.184478
-0.626911 0.569559 1.89135 171 57 40 0.723518 -0.689669 -0.029618
-0.619976 0.612227 1.89135 174 34 68 0.73935 0.647124 -0.18599
-0.626368 0.570015 1.89135 171 57 40 0.482801 -0.875498 -0.020173
-0.620881 0.61322 1.89135 168 32 60 0.813974 0.488385 -0.314526
-0.623896 0.571226 1.89135 171 58 40 0.417176 -0.893536 -0.166004
-0.622138 0.615242 1.89135 168 32 60 0.732574 0.491139 -0.471295
-0.620881 0.572505 1.89135 165 58 43 0.393534 -0.865162 -0.310846
-0.61993 0.57303 1.89135 165 59 43 0.45881 -0.783057 -0.4199
-0.61749 0.606197 1.89135 165 27 59 0.937442 0.117349 -0.327768
-0.617578 0.609212 1.89135 182 47 78 0.962926 0.101293 -0.250027
-0.623896 0.617318 1.89135 165 32 60 0.539763 0.512859 -0.667557
-0.624739 0.618257 1.89135 165 32 60 0.811647 0.408225 -0.41783
-0.625615 0.621272 1.89135 162 31 54 0.825887 0.372521 -0.423247
-0.626911 0.623194 1.89135 159 27 51 0.709421 0.456887 -0.536634
-0.627429 0.624287 1.89135 159 27 51 0.873797 0.305449 -0.378392
-0.629926 0.630318 1.88951 162 32 54 0.797807 0.029341 -0.602198
-0.629926 0.633333 1.88886 157 34 50 0.781177 -0.040966 -0.622964
-0.608821 0.582076 1.89101 163 44 66 0.836802 0.001352 -0.547504
-0.629926 0.636348 1.88911 156 37 49 0.797545 0.164334 -0.580444
-0.614851 0.591121 1.88917 160 38 61 0.729809 0.593275 -0.339711
-0.617866 0.597151 1.89011 140 21 43 0.738924 0.188956 -0.646751
-0.617866 0.600166 1.88999 147 21 45 0.732567 -0.061887 -0.677876
-0.617866 0.603182 1.88956 165 29 61 0.873667 -0.048004 -0.484151
-0.626911 0.570015 1.88852 171 57 40 0.621871 -0.762442 -0.178769
-0.620881 0.57303 1.89044 165 58 43 0.415981 -0.771605 -0.481233
-0.617866 0.606197 1.88965 184 46 82 0.962899 0.025759 -0.26863
-0.617866 0.609212 1.88898 184 46 82 0.866204 0.469132 -0.172064
-0.617454 0.57303 1.89437 167 61 76 0.800729 -0.490666 -0.343626
-0.615746 0.576045 1.89437 167 61 76 0.799272 -0.563019 -0.210173
-0.614851 0.577146 1.89437 166 62 77 0.440434 -0.895868 -0.058634
-0.611836 0.578184 1.89437 167 60 76 0.393726 -0.915987 0.077122
-0.608888 0.579061 1.89437 168 54 74 0.286043 -0.955616 0.070549
-0.608821 0.579088 1.89437 166 50 70 0.791541 -0.59992 -0.116446
-0.607034 0.582076 1.89437 160 39 60 0.935852 -0.178852 -0.303632
-0.607359 0.585091 1.89437 154 31 54 0.928749 0.29262 -0.227593
-0.611836 0.589418 1.89437 160 38 61 0.754036 0.577183 -0.313512
-0.613101 0.591121 1.89437 160 38 61 0.814007 0.482082 -0.324022
-0.608821 0.586858 1.89437 156 37 56 0.698348 0.663351 -0.26884
-0.610599 0.588106 1.89437 156 37 56 0.625474 0.736317 -0.258107
-0.614552 0.594136 1.89437 163 31 58 0.875575 0.391665 -0.282785
-0.614851 0.595051 1.89437 163 30 58 0.907923 0.270476 -0.320185
-0.615326 0.597151 1.89437 163 30 58 0.938481 0.12288 -0.322729
-0.61585 0.600166 1.89437 164 27 58 0.947903 0.065952 -0.311657
-0.615887 0.603182 1.89437 165 30 60 0.944658 0.029242 -0.326752
-0.617866 0.610581 1.89437 168 32 60 0.802219 0.500394 -0.325653
-0.618976 0.612227 1.89437 168 32 60 0.79686 0.381527 -0.468457
-0.61885 0.615242 1.89437 160 28 50 0.655596 0.035247 -0.754288
-0.616221 0.606197 1.89437 161 28 55 0.914337 0.141421 -0.379457
-0.616807 0.609212 1.89437 166 35 60 0.887412 0.334844 -0.316826
-0.619284 0.618257 1.89437 137 21 24 0.69032 0.216602 -0.69032
-0.620881 0.620971 1.89437 150 29 42 0.560967 0.451104 -0.694134
-0.621184 0.621272 1.89437 150 29 42 0.319776 0.380977 -0.867525
-0.623896 0.623445 1.89437 141 25 28 0.463461 0.395638 -0.79289
-0.62435 0.624287 1.89437 141 25 28 0.621286 0.076399 -0.779851
-0.624407 0.627303 1.89437 144 27 28 0.571901 0.034787 -0.819585
-0.629319 0.567 1.89437 171 57 40 0.803173 -0.588219 -0.094405
-0.626911 0.569788 1.89437 171 57 40 0.797029 -0.602356 -0.043731
-0.62668 0.570015 1.89437 171 57 40 0.49072 -0.869472 0.056675
-0.623896 0.571503 1.89437 171 57 39 0.265424 -0.962317 0.059123
-0.620881 0.571621 1.89437 165 59 43 0.21171 -0.965034 -0.154561
-0.617866 0.572677 1.89437 166 59 43 0.35583 -0.864159 -0.35583
-0.623896 0.629494 1.89437 146 29 29 0.489564 -0.045254 -0.870792
-0.623772 0.630318 1.89437 147 33 26 0.526389 -0.014962 -0.850112
-0.617866 0.57303 1.89377 167 61 76 0.586877 -0.715102 -0.379744
-0.626911 0.627303 1.8928 142 26 26 0.618556 0.038043 -0.784819
-0.626911 0.630318 1.89261 142 26 26 0.557928 -0.031842 -0.829278
-0.608821 0.585091 1.89201 160 40 62 0.710355 0.514051 -0.480779
-0.623896 0.630318 1.89429 146 29 29 0.487672 0.001329 -0.873026
-0.611836 0.588106 1.89177 160 38 61 0.696432 0.62793 -0.3474
-0.626911 0.633333 1.89247 141 29 22 0.561622 0.040414 -0.826406
-0.614851 0.594136 1.89358 163 31 58 0.853687 0.395082 -0.339306
-0.620881 0.615242 1.89261 168 32 60 0.745562 0.08284 -0.661268
-0.623896 0.618257 1.89181 164 32 57 0.204029 0.374777 -0.904386
-0.623896 0.621272 1.89299 164 32 57 0.46104 0.428458 -0.777088
-0.620881 0.618257 1.89222 157 30 47 0.479511 0.306572 -0.822243
-0.626911 0.624287 1.8921 148 27 36 0.639492 0.192618 -0.744277
-0.633004 0.55494 1.89437 160 45 53 0.798169 -0.298721 -0.523156
-0.631563 0.56097 1.89437 160 45 53 0.888895 -0.232207 -0.3949
-0.629926 0.565217 1.89437 160 45 53 0.897894 -0.382301 -0.218248
-0.635957 0.55494 1.88928 160 45 53 0.793337 -0.405555 -0.454028
-0.62843 0.567 1.89738 173 56 37 0.846377 -0.29863 -0.440983
-0.627222 0.570015 1.89738 173 56 37 0.847742 -0.31151 -0.429295
-0.617866 0.623122 1.89738 146 33 20 0.588865 0.125447 -0.798436
-0.618097 0.624287 1.89738 146 33 20 0.566211 0.09992 -0.818182
-0.626911 0.570176 1.89738 173 55 37 0.443546 -0.896251 0.001308
-0.614862 0.615242 1.89738 137 27 17 0.66625 0.262366 -0.698051
-0.616384 0.618257 1.89738 137 27 17 0.703682 0.248265 -0.66573
-0.623896 0.571662 1.89738 173 57 40 0.271788 -0.947876 -0.166318
-0.617432 0.621272 1.89738 158 41 25 0.65097 0.212847 -0.728652
-0.620881 0.571741 1.89738 173 57 39 0.029956 -0.992997 -0.114278
-0.617866 0.571544 1.89738 173 57 37 0.052608 -0.902431 -0.42761
-0.615789 0.57303 1.89738 172 59 40 0.648148 -0.365917 -0.667839
-0.615167 0.576045 1.89738 164 81 76 0.855735 -0.323415 -0.403882
-0.614851 0.576542 1.89738 165 74 72 0.582761 -0.771255 -0.256038
-0.611836 0.578973 1.89738 165 74 72 0.540108 -0.795203 -0.275565
-0.611145 0.579061 1.89738 169 63 47 0.340224 -0.925466 -0.166612
-0.608821 0.579429 1.89738 166 44 66 0.570621 -0.821204 -0.004086
-0.60681 0.582076 1.89738 166 44 67 0.968651 -0.245522 -0.037867
-0.607343 0.585091 1.89738 166 44 66 0.912508 0.402697 -0.071862
-0.608821 0.587316 1.89738 158 31 52 0.797589 0.576625 -0.177074
-0.609519 0.588106 1.89738 158 31 52 0.713698 0.561354 -0.418946
-0.611547 0.591121 1.89738 158 31 52 0.651136 0.431315 -0.624491
-0.611836 0.591616 1.89738 158 31 49 0.620097 0.391902 -0.679627
-0.613628 0.594136 1.89738 158 31 49 0.787871 0.375407 -0.48819
-0.614683 0.597151 1.89738 158 31 49 0.746769 0.136184 -0.650991
-0.614761 0.600166 1.89738 157 30 47 0.748935 0.015341 -0.662466
-0.614851 0.602753 1.89738 157 23 49 0.837106 0.020551 -0.546654
-0.614975 0.603182 1.89738 157 23 49 0.951115 0.00123 -0.308835
-0.614851 0.605529 1.89738 148 26 38 0.789774 -0.082298 -0.607852
-0.614467 0.606197 1.89738 155 30 48 0.745961 0.001379 -0.665988
-0.614851 0.60708 1.89738 151 25 44 0.807967 0.270364 -0.523538
-0.615615 0.609212 1.89738 151 25 44 0.785701 0.184602 -0.59042
-0.614851 0.61221 1.89738 157 29 45 0.597034 -0.157906 -0.786521
-0.614825 0.612227 1.89738 145 27 26 0.686062 -0.073973 -0.723773
-0.614851 0.615063 1.89738 146 24 33 0.659924 0.038154 -0.750363
-0.626911 0.570015 1.89715 173 56 37 0.643509 -0.760245 0.089011
-0.617866 0.615242 1.89512 136 26 17 0.600904 0.02649 -0.798882
-0.617866 0.618257 1.89566 136 26 17 0.660567 0.223312 -0.716786
-0.620881 0.621272 1.89451 136 26 17 0.598911 0.212018 -0.77224
-0.611836 0.591121 1.89685 160 36 55 0.758554 0.52691 -0.383355
-0.614851 0.597151 1.89675 158 31 49 0.952402 0.189942 -0.238437
-0.614851 0.600166 1.89716 157 30 47 0.951942 0.076414 -0.296592
-0.617866 0.621272 1.89699 136 26 17 0.62114 0.28582 -0.72972
-0.617866 0.612227 1.89547 161 28 50 0.635584 0.015299 -0.77188
-0.623896 0.624287 1.89461 148 34 23 0.328906 0.106055 -0.938389
-0.614851 0.606197 1.89679 148 26 38 0.899144 0.066856 -0.432517
-0.623896 0.627303 1.89463 148 34 23 0.410889 -0.038562 -0.91087
-0.614851 0.612227 1.89736 157 29 45 0.531813 0.001346 -0.846861
-0.620881 0.624287 1.89539 150 36 21 0.451119 0.193759 -0.871177
-0.620881 0.627303 1.89593 145 33 21 0.436095 0.058418 -0.898003
-0.625474 0.567 1.9004 173 56 37 0.514387 -0.148863 -0.844539
-0.624856 0.570015 1.9004 173 56 37 0.549627 -0.466097 -0.693299
-0.623896 0.57045 1.9004 173 55 33 0.159775 -0.893879 -0.418871
-0.612643 0.615242 1.9004 164 45 26 0.71177 0.206243 -0.671452
-0.613437 0.618257 1.9004 164 45 26 0.621545 0.113679 -0.775086
-0.612698 0.621272 1.9004 181 59 38 0.464296 -0.070684 -0.882855
-0.617866 0.569327 1.9004 173 57 37 -0.174065 -0.355205 -0.918439
-0.618379 0.570015 1.9004 173 57 37 -0.361388 -0.708058 -0.606673
-0.620881 0.571115 1.9004 173 57 37 -0.066762 -0.903324 -0.423731
-0.614851 0.568547 1.9004 173 59 40 0.06181 -0.659786 -0.748907
-0.613365 0.570015 1.9004 174 57 37 0.641449 -0.341127 -0.68715
-0.612307 0.57303 1.9004 173 59 40 0.618519 -0.168687 -0.76745
-0.611875 0.576045 1.9004 166 71 56 0.651004 -0.107763 -0.751386
-0.611836 0.57611 1.9004 165 75 79 0.4899 -0.597644 -0.634681
-0.608821 0.578861 1.9004 169 63 47 0.411198 -0.479461 -0.775263
-0.60839 0.579061 1.9004 169 63 47 0.342376 -0.342376 -0.874961
-0.606714 0.582076 1.9004 166 46 66 0.917215 -0.088587 -0.388419
-0.607111 0.585091 1.9004 166 44 66 0.942626 0.202286 -0.265587
-0.607684 0.588106 1.9004 158 28 50 0.838872 0.130296 -0.528504
-0.608463 0.591121 1.9004 157 29 46 0.769707 0.198188 -0.606855
-0.608821 0.592425 1.9004 156 29 44 0.642317 0.205851 -0.738278
-0.609673 0.594136 1.9004 156 29 44 0.474261 0.267255 -0.838839
-0.611543 0.597151 1.9004 156 29 45 0.450885 0.258304 -0.85439
-0.611836 0.598197 1.9004 159 33 51 0.605363 0.07621 -0.792293
-0.611958 0.600166 1.9004 159 33 51 0.724826 0.001381 -0.68893
-0.611836 0.601099 1.9004 155 31 45 0.632558 -0.015293 -0.774362
-0.611561 0.603182 1.9004 143 29 26 0.623436 0.015273 -0.781725
-0.611567 0.606197 1.9004 143 29 21 0.677265 0.009735 -0.735674
-0.611472 0.609212 1.9004 145 30 23 0.709868 0.001384 -0.704333
-0.611836 0.613143 1.9004 147 33 20 0.701855 0.165948 -0.69272
-0.611597 0.612227 1.9004 156 37 31 0.692714 0.023887 -0.720816
-0.626911 0.567 1.89934 173 56 37 0.718925 -0.186274 -0.669663
-0.626911 0.570015 1.89815 173 56 37 0.62475 -0.60791 -0.490033
-0.617866 0.570015 1.89989 173 57 37 -0.263491 -0.77154 -0.579049
-0.614851 0.570015 1.89853 173 59 40 0.25201 -0.571327 -0.781074
-0.617866 0.624287 1.89756 150 36 21 0.518523 0.083816 -0.850946
-0.614851 0.615242 1.8974 145 31 20 0.732382 0.271664 -0.624352
-0.614851 0.618257 1.89918 145 31 20 0.695809 0.230889 -0.680103
-0.614851 0.621272 1.89944 165 47 28 0.560939 0.043364 -0.826721
-0.614851 0.57303 1.89819 173 59 40 0.673964 -0.127022 -0.727762
-0.614851 0.576045 1.8977 165 74 72 0.665213 -0.172802 -0.726382
-0.608821 0.579061 1.89996 169 63 47 0.664772 -0.699677 -0.261784
-0.608821 0.588106 1.89844 158 31 52 0.861176 0.340465 -0.377438
-0.608821 0.591121 1.89999 160 31 54 0.675065 0.344888 -0.652181
-0.611836 0.594136 1.89896 158 31 49 0.572166 0.363513 -0.735176
-0.611836 0.597151 1.90022 158 31 51 0.663794 0.241236 -0.707942
-0.614851 0.603182 1.89755 157 30 47 0.663079 -0.001379 -0.748548
-0.611836 0.603182 1.90017 155 31 45 0.669667 -0.020971 -0.742366
-0.611836 0.606197 1.90016 149 28 38 0.650966 0.058658 -0.756837
-0.614851 0.609212 1.89835 129 15 18 0.624185 -0.004134 -0.781265
-0.611836 0.609212 1.90003 138 24 21 0.516466 -0.006742 -0.856281
-0.611836 0.612227 1.90011 143 29 20 0.618211 -0.058537 -0.783829
-0.629581 0.548909 1.9004 130 66 48 0.6004 -0.16787 -0.781882
-0.627976 0.55494 1.9004 168 62 58 0.627609 -0.142298 -0.765414
-0.627088 0.56097 1.9004 168 62 58 0.646615 -0.132907 -0.751149
-0.629926 0.548909 1.90009 130 66 48 0.694645 -0.237849 -0.678893
-0.629926 0.55494 1.89841 130 66 48 0.771842 -0.145376 -0.618972
-0.629926 0.56097 1.89745 160 45 53 0.818318 -0.176323 -0.547052
-0.617866 0.563407 1.90341 168 62 58 0.2955 -0.411863 -0.862003
-0.616853 0.563985 1.90341 168 62 58 0.216927 -0.444327 -0.869205
-0.614851 0.56488 1.90341 168 62 58 0.249026 -0.518159 -0.818228
-0.611836 0.566865 1.90341 168 62 58 0.338161 -0.511248 -0.79011
-0.611666 0.567 1.90341 168 62 58 0.370947 -0.510255 -0.775911
-0.608821 0.568701 1.90341 174 60 41 0.443356 -0.539665 -0.715679
-0.607697 0.570015 1.90341 174 60 41 0.678338 -0.304527 -0.668671
-0.606587 0.597151 1.90341 147 33 20 0.6118 0.158615 -0.774947
-0.60706 0.57303 1.90341 174 60 41 0.666125 -0.16615 -0.727098
-0.607272 0.600166 1.90341 147 33 20 0.586471 0.085017 -0.805496
-0.60757 0.603182 1.90341 149 33 20 0.571011 0.078711 -0.817161
-0.605805 0.575837 1.90341 168 70 54 0.654042 -0.258133 -0.711053
-0.608138 0.606197 1.90341 157 38 23 0.539947 0.034523 -0.840991
-0.607942 0.609212 1.90341 162 44 28 0.42859 -0.055433 -0.901797
-0.605805 0.586394 1.90341 155 26 43 0.847307 0.057421 -0.527991
-0.605855 0.588106 1.90341 155 26 43 0.852716 0.001343 -0.522373
-0.605805 0.590754 1.90341 151 27 38 0.793715 0.015237 -0.608099
-0.605805 0.595122 1.90341 143 30 21 0.597997 0.14167 -0.788879
-0.607623 0.612227 1.90341 180 60 36 0.418537 0.060952 -0.906152
-0.608708 0.615242 1.90341 181 60 37 0.414259 0.060722 -0.908131
-0.605612 0.576045 1.90341 167 56 38 0.887065 -0.219921 -0.405895
-0.604381 0.579061 1.90341 167 56 38 0.905852 -0.011798 -0.42343
-0.605452 0.582076 1.90341 147 34 29 0.847259 0.126435 -0.515913
-0.605719 0.585091 1.90341 147 34 29 0.825135 0.066749 -0.560978
-0.605784 0.591121 1.90341 142 25 23 0.733656 -0.101447 -0.671906
-0.605544 0.594136 1.90341 168 49 31 0.702996 -0.058942 -0.708747
-0.617866 0.563985 1.90318 168 62 58 0.189808 -0.324783 -0.926547
-0.617866 0.567 1.90159 168 62 58 0.039963 -0.511245 -0.858505
-0.614851 0.567 1.90182 168 62 58 0.319695 -0.57031 -0.756665
-0.611836 0.600166 1.90046 151 32 32 0.487672 0.001329 -0.873026
-0.611836 0.567 1.90332 168 62 58 0.395045 -0.465991 -0.791702
-0.608821 0.597151 1.9016 146 34 23 0.51633 0.188167 -0.835462
-0.623896 0.567 1.90112 173 56 38 0.243335 -0.163553 -0.956054
-0.623896 0.570015 1.90073 173 56 38 0.206431 -0.201103 -0.957572
-0.620881 0.567 1.90162 173 55 34 0.102031 -0.262181 -0.95961
-0.620881 0.570015 1.90125 173 55 34 -0.013248 -0.254115 -0.967083
-0.608821 0.600166 1.90215 146 34 23 0.545129 0.096368 -0.832795
-0.608821 0.603182 1.90244 146 34 23 0.579987 0.05814 -0.812549
-0.611836 0.570015 1.90156 170 59 42 0.397047 -0.416182 -0.818013
-0.611836 0.57303 1.90067 170 58 40 0.323228 -0.152674 -0.933924
-0.608821 0.570015 1.90262 174 60 41 0.42705 -0.318346 -0.846336
-0.608821 0.57303 1.90141 175 60 40 0.495704 -0.116383 -0.860658
-0.608821 0.606197 1.90283 148 33 21 0.624493 0.058591 -0.77883
-0.611836 0.576045 1.90043 167 68 53 0.420899 -0.080889 -0.903494
-0.608821 0.609212 1.90306 159 40 26 0.639228 0.004142 -0.769006
-0.608821 0.576045 1.90182 168 72 64 0.421649 -0.238584 -0.874809
-0.611836 0.615242 1.90102 171 52 31 0.623434 0.136049 -0.769948
-0.605805 0.576045 1.90331 168 70 54 0.551481 -0.451514 -0.70143
-0.608821 0.612227 1.90292 157 39 24 0.60528 0.088542 -0.791073
-0.605805 0.579061 1.90129 167 73 71 0.621026 -0.229952 -0.749299
-0.608821 0.615242 1.90337 179 61 37 0.569256 0.043359 -0.821016
-0.605805 0.582076 1.90278 160 46 60 0.886992 0.172753 -0.428253
-0.611836 0.618257 1.90137 178 57 35 0.552469 -0.009549 -0.833478
-0.605805 0.585091 1.90326 157 33 51 0.910357 0.083256 -0.405362
-0.605805 0.591121 1.90339 151 27 38 0.712567 0.018199 -0.701368
-0.608821 0.594136 1.90088 143 28 23 0.575173 0.200927 -0.792972
-0.605805 0.594136 1.90318 140 23 24 0.65368 0.061776 -0.754246
-0.614444 0.56097 1.90643 168 62 58 0.405593 -0.405593 -0.819139
-0.611836 0.562292 1.90643 168 62 58 0.340377 -0.610724 -0.714954
-0.605805 0.56877 1.90643 167 56 38 0.642879 -0.445841 -0.622842
-0.609369 0.563985 1.90643 168 62 58 0.431674 -0.598344 -0.675012
-0.605145 0.570015 1.90643 167 56 38 0.732657 -0.313996 -0.603838
-0.603823 0.57303 1.90643 167 56 38 0.825626 -0.149709 -0.543994
-0.608821 0.564621 1.90643 168 62 58 0.561808 -0.448446 -0.695175
-0.603762 0.576045 1.90643 173 59 36 0.896264 -0.050169 -0.440674
-0.603668 0.579061 1.90643 161 54 39 0.975464 -0.049682 -0.214481
-0.603706 0.582076 1.90643 152 41 33 0.944608 -0.003743 -0.32818
-0.603646 0.585091 1.90643 143 27 26 0.855958 0.014922 -0.51683
-0.603654 0.588106 1.90643 142 24 24 0.828576 -0.040384 -0.558418
-0.603238 0.591121 1.90643 142 26 21 0.805463 -0.131534 -0.577865
-0.606939 0.567 1.90643 168 62 58 0.587333 -0.427605 -0.687163
-0.60279 0.592775 1.90643 159 41 27 0.714398 -0.247595 -0.654471
-0.602112 0.609212 1.90643 179 58 34 0.773496 0.02948 -0.633115
-0.60217 0.594136 1.90643 168 49 31 0.603085 -0.281652 -0.746298
-0.600677 0.597151 1.90643 179 59 36 0.560642 0.009549 -0.828004
-0.60279 0.599929 1.90643 163 45 27 0.476356 0.292061 -0.829328
-0.602909 0.600166 1.90643 163 45 27 0.588914 0.023557 -0.807852
-0.602925 0.603182 1.90643 173 54 33 0.56379 0.006826 -0.82589
-0.60279 0.603882 1.90643 179 59 35 0.584067 -0.1005 -0.805459
-0.602191 0.606197 1.90643 179 59 35 0.775996 -0.079478 -0.62571
-0.617866 0.56097 1.90462 168 62 58 0.338899 -0.413863 -0.844905
-0.605805 0.597151 1.90406 156 38 23 0.499535 0.170464 -0.849357
-0.614851 0.56097 1.90619 168 62 58 0.418542 -0.44763 -0.790221
-0.605805 0.600166 1.90442 156 38 23 0.547295 0.09337 -0.831715
-0.614851 0.563985 1.90393 168 62 58 0.310887 -0.543654 -0.779609
-0.611836 0.563985 1.90506 168 62 58 0.376719 -0.493131 -0.784159
-0.605805 0.603182 1.90455 170 52 31 0.540389 0.040286 -0.84045
-0.608821 0.567 1.905 168 62 58 0.490619 -0.490619 -0.720129
-0.605805 0.570015 1.90567 174 60 41 0.726556 -0.236955 -0.644956
-0.605805 0.609212 1.90424 179 58 34 0.450389 -0.053067 -0.891254
-0.605805 0.57303 1.90462 174 60 41 0.714275 -0.210081 -0.66759
-0.60279 0.609212 1.90597 179 58 34 0.498575 0.009407 -0.866795
-0.605805 0.612227 1.90441 179 58 34 0.520596 0.083692 -0.849692
-0.605805 0.588106 1.90347 154 27 42 0.806665 0.001365 -0.591008
-0.605805 0.606197 1.90476 175 56 36 0.461471 -0.036539 -0.886403
-0.60279 0.594136 1.90596 159 41 27 0.642247 -0.085924 -0.761667
-0.60279 0.597151 1.90565 171 53 33 0.499612 0.086335 -0.861936
-0.60279 0.606197 1.90599 179 59 35 0.416659 -0.077867 -0.905722
-0.618875 0.55494 1.90643 168 62 58 0.489501 -0.203331 -0.847966
-0.617866 0.556738 1.90643 168 62 58 0.424191 -0.286367 -0.859102
-0.623896 0.548909 1.90471 130 66 48 0.574599 -0.177383 -0.798981
-0.623896 0.55494 1.90352 168 62 58 0.531371 -0.159262 -0.832034
-0.623896 0.56097 1.90243 168 62 58 0.382279 -0.237633 -0.892969
-0.602263 0.585091 1.90944 180 64 40 0.894358 -0.120095 -0.430931
-0.60171 0.588106 1.90944 180 64 40 0.818649 -0.218816 -0.530974
-0.601082 0.591121 1.90944 177 61 39 0.708843 -0.300575 -0.638119
-0.599775 0.593136 1.90944 179 60 37 0.644893 -0.399535 -0.651525
-0.599196 0.594136 1.90944 180 60 38 0.682178 -0.254828 -0.685344
-0.59827 0.597151 1.90944 180 60 38 0.72554 -0.136696 -0.674467
-0.599775 0.601999 1.90944 181 61 40 0.55494 0.366163 -0.746972
-0.600368 0.603182 1.90944 181 61 40 0.779636 -0.026594 -0.625668
-0.60414 0.567 1.90944 176 62 43 0.686399 -0.362039 -0.630701
-0.602954 0.570015 1.90944 176 62 43 0.791324 -0.275311 -0.545903
-0.60279 0.570048 1.90944 176 62 43 0.893566 -0.117166 -0.433373
-0.598315 0.600166 1.90944 180 60 38 0.623879 0.155592 -0.765876
-0.602558 0.57303 1.90944 176 62 43 0.916264 -0.024906 -0.3998
-0.600184 0.606197 1.90944 161 57 37 0.805478 -0.052377 -0.590306
-0.60279 0.574102 1.90944 176 62 43 0.931054 0.13575 -0.33869
-0.603173 0.576045 1.90944 176 62 43 0.971569 0.099294 -0.214927
-0.603603 0.579061 1.90944 176 62 43 0.975632 -0.042105 -0.215337
-0.602796 0.582076 1.90944 173 59 41 0.90754 -0.243273 -0.34233
-0.60279 0.582108 1.90944 175 61 41 0.910165 -0.136034 -0.391273
-0.60279 0.585091 1.90838 171 56 36 0.917174 -0.063114 -0.393458
-0.60279 0.588106 1.90797 171 56 36 0.851786 -0.101642 -0.513935
-0.605805 0.567 1.90758 160 45 53 0.638387 -0.425036 -0.641721
-0.60279 0.591121 1.90738 178 61 39 0.797005 -0.183691 -0.575362
-0.599775 0.594136 1.90887 179 60 37 0.702642 -0.314977 -0.638031
-0.60279 0.57303 1.90887 176 62 43 0.908499 -0.035914 -0.41634
-0.599775 0.597151 1.90738 179 60 37 0.750353 -0.043972 -0.659573
-0.60279 0.600166 1.90656 181 61 40 0.518898 0.042896 -0.853759
-0.599775 0.600166 1.90833 181 61 40 0.582553 0.263649 -0.768844
-0.60279 0.603182 1.90659 181 61 40 0.663737 0.172419 -0.727822
-0.601084 0.585091 1.91246 177 61 39 0.893923 -0.184599 -0.408443
-0.599903 0.588106 1.91246 177 61 39 0.832095 -0.33504 -0.442001
-0.599775 0.588346 1.91246 177 61 39 0.561194 -0.474083 -0.678459
-0.597499 0.591121 1.91246 176 60 40 0.671678 -0.369505 -0.642118
-0.59676 0.592624 1.91246 180 60 38 0.695503 -0.325865 -0.640381
-0.596341 0.594136 1.91246 180 60 38 0.818447 -0.198918 -0.539051
-0.595499 0.597151 1.91246 180 60 38 0.815441 -0.118583 -0.566563
-0.595351 0.600166 1.91246 180 60 38 0.801895 -0.0495 -0.595411
-0.595143 0.603182 1.91246 180 60 38 0.747468 -0.006934 -0.664262
-0.601171 0.570015 1.91246 176 62 43 0.828241 -0.066542 -0.556408
-0.601147 0.57303 1.91246 176 62 43 0.861144 0.03983 -0.506798
-0.601367 0.576045 1.91246 176 62 43 0.82127 0.023465 -0.570058
-0.601343 0.579061 1.91246 176 62 43 0.79053 0.00137 -0.612421
-0.601176 0.582076 1.91246 178 60 40 0.865944 -0.062548 -0.496215
-0.599775 0.591121 1.91077 177 61 39 0.665927 -0.355052 -0.65611
-0.59676 0.594136 1.91193 180 60 38 0.711742 -0.226819 -0.664814
-0.59676 0.597151 1.91085 180 60 38 0.729632 -0.120367 -0.673163
-0.599775 0.603182 1.91001 181 61 40 0.433142 0.078378 -0.897911
-0.59676 0.600166 1.91086 180 60 38 0.720826 0.009722 -0.693048
-0.60279 0.570015 1.90969 176 62 43 0.877038 -0.115512 -0.466327
-0.59676 0.603182 1.91103 180 60 38 0.520596 0.083692 -0.849692
-0.60279 0.576045 1.91043 176 62 43 0.84162 0.099268 -0.530868
-0.599775 0.606197 1.90986 161 57 37 0.47519 0.009317 -0.879834
-0.60279 0.579061 1.91097 177 62 43 0.837041 -0.063519 -0.543441
-0.60279 0.582076 1.90946 175 60 41 0.856809 -0.231203 -0.460894
-0.617866 0.55494 1.90697 160 45 53 0.455005 -0.217742 -0.863458
-0.611836 0.56097 1.90778 160 45 53 0.463071 -0.424075 -0.778284
-0.598949 0.57303 1.91547 176 62 43 0.671443 0.012511 -0.740951
-0.599074 0.576045 1.91547 176 62 43 0.666961 0.015316 -0.744935
-0.599048 0.579061 1.91547 176 62 43 0.649226 -0.015292 -0.760442
-0.598909 0.582076 1.91547 176 60 40 0.578659 -0.001362 -0.815569
-0.599616 0.585091 1.91547 176 60 40 0.448859 -0.285357 -0.846816
-0.599775 0.57303 1.91454 176 62 43 0.808301 0.006862 -0.588729
-0.599775 0.576045 1.91475 176 62 43 0.796465 0.029292 -0.603974
-0.599775 0.579061 1.91478 176 62 43 0.812147 -0.015167 -0.583256
-0.599775 0.582076 1.91466 176 60 40 0.783627 0.049597 -0.619249
-0.599775 0.585091 1.91535 176 60 40 0.87791 -0.118482 -0.463936
-0.595302 0.576045 1.91849 176 62 43 0.624185 0.004134 -0.781265
-0.595296 0.579061 1.91849 176 62 43 0.623749 -0.049729 -0.780041
