ply
format ascii 1.0
element vertex 735
property float x
property float y
property float z
property uchar red
property uchar green
property uchar blue
property float nx
property float ny
property float nz
end_header
-0.681184 0.811226 1.86717 168 43 46 0.073144 0.173867 -0.982049
-0.675153 0.799165 1.86521 171 51 38 -0.152827 0.223363 -0.96268
-0.672138 0.799165 1.8644 164 35 42 -0.194951 0.34579 -0.917836
-0.675153 0.80218 1.86616 171 50 38 -0.017991 0.241085 -0.970337
-0.629926 0.787104 1.86659 114 40 51 0.057257 0.097673 -0.99357
-0.672138 0.80218 1.86567 156 27 33 -0.11004 0.34914 -0.930587
-0.632942 0.79012 1.86663 123 71 76 0.174658 0.02429 -0.98433
-0.669123 0.80218 1.86519 176 39 61 -0.122437 0.364561 -0.923095
-0.629926 0.79012 1.86703 121 65 76 0.086323 0.102437 -0.990987
-0.666108 0.80218 1.86488 176 39 63 -0.142445 0.344358 -0.927969
-0.675153 0.805195 1.86658 172 51 31 0.079193 0.191281 -0.978335
-0.672138 0.805195 1.86696 171 52 37 -0.026862 0.346647 -0.937611
-0.675153 0.80821 1.86689 172 51 31 0.069772 0.157283 -0.985086
-0.669123 0.805195 1.86641 150 25 29 -0.143879 0.370174 -0.917753
-0.666108 0.805195 1.86593 169 31 56 -0.132493 0.377954 -0.916295
-0.626911 0.781074 1.867 184 50 83 0.24664 -0.042947 -0.968155
-0.626911 0.784089 1.8663 156 37 61 0.158447 -0.040479 -0.986537
-0.626911 0.787104 1.86659 137 30 49 0.126224 0.121415 -0.984544
-0.663093 0.805195 1.86546 172 34 61 -0.109712 0.406906 -0.906858
-0.626911 0.79012 1.86705 145 31 51 0.095685 0.161091 -0.98229
-0.660078 0.805195 1.86536 178 38 74 -0.107282 0.419377 -0.901451
-0.663093 0.80821 1.86683 173 35 65 -0.089091 0.401596 -0.911473
-0.660078 0.80821 1.86668 170 33 60 -0.088714 0.391707 -0.915803
-0.657063 0.805195 1.86487 174 37 72 -0.017144 0.42859 -0.903336
-0.654047 0.805195 1.86525 172 37 71 0.079435 0.378327 -0.922257
-0.657063 0.80821 1.86611 175 38 73 -0.089938 0.355725 -0.930253
-0.651032 0.805195 1.86542 172 35 71 0.028621 0.500186 -0.865445
-0.648017 0.805195 1.86545 172 35 71 0.037193 0.516569 -0.855438
-0.645002 0.805195 1.86547 172 38 72 0.040566 0.569323 -0.821112
-0.638972 0.799165 1.86453 155 37 66 0.463818 0.480324 -0.74442
-0.689222 0.759968 1.87024 169 54 35 0.307402 -0.622851 -0.719417
-0.687214 0.760846 1.87024 169 54 35 0.251179 -0.734581 -0.630318
-0.684199 0.761759 1.87024 169 54 35 0.289962 -0.706481 -0.645605
-0.682007 0.762983 1.87024 169 54 35 0.344932 -0.665343 -0.662073
-0.681184 0.763386 1.87024 169 54 35 0.387452 -0.704008 -0.595192
-0.678169 0.765374 1.87024 169 54 35 0.47199 -0.639958 -0.606365
-0.677551 0.765998 1.87024 162 57 42 0.562639 -0.626844 -0.538984
-0.654047 0.773225 1.87024 163 87 92 0.025361 -0.969759 -0.242742
-0.675153 0.768072 1.87024 169 56 35 0.549945 -0.664307 -0.506218
-0.673711 0.769014 1.87024 166 57 40 0.41851 -0.776767 -0.47062
-0.651032 0.773432 1.87024 163 87 92 0.1713 -0.957421 -0.232384
-0.648017 0.774285 1.87024 177 68 87 0.175289 -0.960793 -0.214828
-0.645002 0.774528 1.87024 184 63 88 0.066626 -0.987703 -0.141434
-0.672138 0.76935 1.87024 161 53 40 0.001275 -0.924466 -0.381263
-0.629926 0.801725 1.87024 178 38 74 0.431382 0.361855 -0.82642
-0.641987 0.774115 1.87024 180 69 87 -0.260599 -0.964586 0.040757
-0.669123 0.768983 1.87024 155 58 46 0.001379 -0.668888 -0.743362
-0.669287 0.769014 1.87024 155 58 46 -0.052657 -0.78131 -0.621917
-0.669003 0.769014 1.87024 165 53 37 0.353316 -0.587774 -0.727798
-0.623289 0.79012 1.87024 160 37 63 0.768255 0.350971 -0.535353
-0.630341 0.80218 1.87024 178 38 74 0.309927 0.2465 -0.91825
-0.666108 0.771041 1.87024 148 56 45 0.35242 -0.570043 -0.742193
-0.638972 0.772536 1.87024 178 66 85 -0.256897 -0.962407 0.088189
-0.623896 0.791412 1.87024 160 37 63 0.724887 0.386278 -0.570376
-0.635957 0.772503 1.87024 178 63 83 0.207003 -0.96471 -0.162738
-0.635957 0.806402 1.87024 178 40 78 0.324567 0.522824 -0.788233
-0.663947 0.772029 1.87024 168 55 36 0.261573 -0.714967 -0.648384
-0.632942 0.774053 1.87024 184 56 86 0.220847 -0.881905 -0.416497
-0.629926 0.774349 1.87024 184 56 86 0.165886 -0.864664 -0.474171
-0.666108 0.81722 1.87024 173 53 32 0.106899 0.296942 -0.948893
-0.663093 0.772261 1.87024 149 83 81 0.241219 -0.923484 -0.298312
-0.660078 0.773134 1.87024 157 79 83 0.152159 -0.936257 -0.316655
-0.638118 0.80821 1.87024 178 40 78 0.417274 0.549219 -0.724045
-0.628274 0.775044 1.87024 167 41 69 0.325161 -0.736062 -0.593703
-0.657063 0.773239 1.87024 162 81 86 0.057553 -0.95283 -0.297999
-0.66614 0.817256 1.87024 173 53 32 0.211109 0.232901 -0.94931
-0.626911 0.775987 1.87024 167 41 69 0.325165 -0.457116 -0.827836
-0.669123 0.819989 1.87024 173 53 31 0.182377 0.224975 -0.957144
-0.624537 0.778059 1.87024 167 41 69 0.447994 -0.396611 -0.80125
-0.669836 0.820271 1.87024 173 53 31 0.109253 0.202182 -0.973235
-0.623896 0.778621 1.87024 163 39 66 0.36435 -0.286382 -0.886135
-0.663093 0.816165 1.87024 146 28 27 0.008921 0.363231 -0.931656
-0.622185 0.781074 1.87024 168 41 69 0.490495 -0.186358 -0.851285
-0.660078 0.816595 1.87024 146 28 26 -0.041481 0.421496 -0.905881
-0.657063 0.816655 1.87024 159 30 45 0.020133 0.47112 -0.881839
-0.632794 0.805195 1.87024 178 39 75 0.276471 0.391289 -0.877757
-0.632942 0.805255 1.87024 171 37 65 0.228651 0.595736 -0.769946
-0.654047 0.816384 1.87024 159 30 45 0.065671 0.507207 -0.859318
-0.641987 0.810432 1.87024 175 37 73 0.394523 0.685051 -0.612419
-0.672138 0.822131 1.87024 169 52 34 0.128896 0.146082 -0.980839
-0.621352 0.784089 1.87024 168 41 69 0.734343 -0.041191 -0.677527
-0.643183 0.811226 1.87024 175 37 73 0.474467 0.645476 -0.598533
-0.621935 0.787104 1.87024 170 43 71 0.772933 0.246147 -0.584795
-0.645002 0.812337 1.87024 175 38 74 0.307467 0.546431 -0.779023
-0.624846 0.793135 1.87024 163 32 60 0.621963 0.457671 -0.635374
-0.64745 0.814241 1.87024 175 38 74 0.365092 0.428311 -0.826594
-0.626911 0.795505 1.87024 172 33 69 0.579168 0.455657 -0.675974
-0.62734 0.79615 1.87024 172 33 69 0.732538 0.226478 -0.641947
-0.651032 0.81581 1.87024 169 34 63 0.122161 0.478585 -0.869502
-0.648017 0.814855 1.87024 177 39 76 0.274196 0.407507 -0.871065
-0.638972 0.808827 1.87024 173 36 69 0.360679 0.736045 -0.572842
-0.628159 0.799165 1.87024 172 33 69 0.668966 0.248293 -0.700596
-0.690229 0.759968 1.8695 169 54 35 0.104542 -0.667006 -0.737682
-0.687214 0.762983 1.86734 169 54 35 0.282445 -0.742018 -0.607976
-0.684199 0.762983 1.86904 169 54 35 0.366743 -0.656191 -0.65948
-0.632942 0.775044 1.86854 184 56 86 0.18195 -0.831555 -0.524797
-0.623896 0.79012 1.8693 160 37 63 0.650164 0.358655 -0.669816
-0.629926 0.775044 1.86914 184 56 86 0.179827 -0.814513 -0.551572
-0.681184 0.765998 1.8673 169 54 35 0.319115 -0.707885 -0.630131
-0.678169 0.811226 1.86748 168 43 46 0.133058 0.193885 -0.971959
-0.629926 0.79615 1.86747 116 77 78 0.642232 0.250896 -0.724286
-0.678169 0.765998 1.86886 169 54 35 0.473961 -0.661536 -0.581147
-0.626911 0.778059 1.86842 167 41 69 0.552577 -0.549197 -0.62693
-0.684199 0.814241 1.86738 168 43 46 0.093433 0.166237 -0.981649
-0.675153 0.769014 1.86853 169 56 35 0.459642 -0.725139 -0.512741
-0.623896 0.781074 1.86903 163 39 66 0.571984 -0.306019 -0.761043
-0.681184 0.814241 1.8678 168 43 46 0.117938 0.177528 -0.977023
-0.632942 0.799165 1.86769 157 38 67 0.333751 0.437167 -0.835162
-0.623896 0.784089 1.86797 168 39 67 0.639025 -0.129592 -0.75819
-0.678169 0.814241 1.86809 168 43 46 0.127696 0.195969 -0.97226
-0.629926 0.799165 1.86899 157 38 67 0.40293 0.412486 -0.817008
-0.635957 0.80218 1.86811 165 35 68 0.392308 0.389157 -0.833457
-0.669123 0.769014 1.87022 155 58 46 0.001375 -0.639507 -0.768784
-0.672138 0.80821 1.86758 169 51 36 0.071214 0.306866 -0.949085
-0.623896 0.787104 1.86784 145 31 51 0.695272 0.143277 -0.704321
-0.669123 0.772029 1.86771 157 59 46 0.37726 -0.621079 -0.686976
-0.669123 0.80821 1.86771 157 27 39 -0.037589 0.353856 -0.934544
-0.632942 0.80218 1.8693 165 35 68 0.313064 0.383312 -0.868943
-0.626911 0.793135 1.86847 163 42 69 0.542144 0.410316 -0.733295
-0.666108 0.772029 1.86932 148 56 45 0.176801 -0.854291 -0.488803
-0.666108 0.80821 1.86736 157 27 39 -0.115329 0.343273 -0.932128
-0.638972 0.805195 1.86787 176 39 75 0.452825 0.449556 -0.769967
-0.635957 0.805195 1.86957 176 39 75 0.349256 0.389615 -0.852186
-0.641987 0.80821 1.86798 176 39 75 0.30629 0.591733 -0.74568
-0.638972 0.80821 1.86968 176 39 75 0.425486 0.547999 -0.72018
-0.675153 0.811226 1.86796 173 52 30 0.163346 0.237715 -0.957502
-0.672138 0.811226 1.86863 173 52 30 0.147347 0.222976 -0.963624
-0.675153 0.814241 1.86857 173 52 30 0.144416 0.164508 -0.975747
-0.672138 0.814241 1.86891 173 52 29 0.126224 0.121415 -0.984544
-0.632942 0.805195 1.87022 167 31 63 0.195462 0.346695 -0.917386
-0.669123 0.811226 1.86881 167 50 36 -0.028728 0.293526 -0.955519
-0.666108 0.811226 1.86846 153 38 31 -0.093294 0.306163 -0.947397
-0.669123 0.814241 1.8694 169 54 33 0.042147 0.135552 -0.989873
-0.666108 0.814241 1.86936 172 53 33 0.038622 0.275339 -0.960571
-0.678169 0.817256 1.86868 169 50 33 0.125184 0.167325 -0.977922
-0.675153 0.817256 1.86905 169 50 33 0.103824 0.164897 -0.980831
-0.672138 0.817256 1.86931 169 50 33 0.092474 0.154924 -0.983589
-0.678169 0.820271 1.86914 169 50 33 0.121015 0.147908 -0.981569
-0.675153 0.820271 1.8696 169 50 33 0.129113 0.151246 -0.980028
-0.672138 0.820271 1.8699 169 50 33 0.110434 0.184884 -0.976536
-0.669123 0.817256 1.86946 173 53 30 0.115489 0.177579 -0.977307
-0.654047 0.811226 1.86727 180 40 80 0.085186 0.465032 -0.881186
-0.663093 0.811226 1.86817 151 26 32 -0.070557 0.3661 -0.927897
-0.651032 0.811226 1.86834 180 40 80 0.229069 0.391634 -0.891151
-0.660078 0.811226 1.86784 167 32 57 -0.105943 0.389376 -0.914966
-0.648017 0.80821 1.86724 179 39 79 0.07425 0.497332 -0.864377
-0.663093 0.814241 1.86941 156 29 40 -0.046307 0.390301 -0.919522
-0.648017 0.811226 1.86897 179 39 79 0.147995 0.432491 -0.889409
-0.660078 0.814241 1.86917 150 28 31 -0.080874 0.415337 -0.906065
-0.654047 0.814241 1.86889 179 39 79 0.12427 0.461371 -0.878461
-0.651032 0.814241 1.86941 179 39 79 0.161163 0.39221 -0.905648
-0.657063 0.811226 1.86737 167 33 61 -0.081414 0.43743 -0.895559
-0.648017 0.814241 1.86999 178 39 78 0.196517 0.362912 -0.910865
-0.645002 0.80821 1.86749 175 38 74 0.085762 0.485047 -0.870273
-0.657063 0.814241 1.86894 160 31 47 -0.025592 0.470085 -0.88225
-0.645002 0.811226 1.86911 175 38 74 0.183884 0.569888 -0.800883
-0.696259 0.758255 1.87024 169 54 39 0.072998 -0.579688 -0.811563
-0.690229 0.759195 1.87024 169 54 39 0.15935 -0.651057 -0.742114
-0.676417 0.826301 1.87024 169 52 34 0.124948 0.105908 -0.986495
-0.678169 0.82828 1.87024 168 43 46 0.093641 0.098265 -0.990745
-0.696259 0.759968 1.86911 169 54 39 -0.057369 -0.524717 -0.849342
-0.690229 0.79615 1.86448 174 48 46 0.079003 0.140319 -0.986949
-0.70229 0.765998 1.86761 169 54 39 -0.090289 -0.245433 -0.9652
-0.678169 0.826301 1.87005 169 52 34 0.111782 0.135822 -0.984407
-0.696259 0.765998 1.86592 169 54 39 -0.229414 -0.36677 -0.901582
-0.70229 0.772029 1.86615 169 54 39 -0.152742 -0.193815 -0.969075
-0.696259 0.80218 1.86502 168 43 46 0.032696 0.129656 -0.99102
-0.690229 0.80218 1.86532 168 43 46 0.058414 0.122554 -0.990741
-0.690229 0.80821 1.86606 168 43 46 0.054135 0.134761 -0.989398
-0.690229 0.814241 1.86694 168 43 46 0.066867 0.148984 -0.986576
-0.684199 0.820271 1.86843 168 43 46 0.103164 0.158993 -0.981875
-0.696259 0.772029 1.86477 169 54 39 -0.313583 -0.164389 -0.935223
-0.70229 0.778059 1.86514 174 54 57 -0.119009 -0.128626 -0.984526
-0.70229 0.784089 1.86448 174 54 57 -0.119243 -0.077566 -0.989831
-0.684199 0.826301 1.86937 168 43 46 0.101517 0.137346 -0.985307
-0.681571 0.759968 1.87326 169 54 39 0.34366 -0.623799 -0.701978
-0.681184 0.760213 1.87326 169 54 39 0.373055 -0.603133 -0.705025
-0.678169 0.762085 1.87326 169 54 39 0.385919 -0.5797 -0.717645
-0.641987 0.774773 1.87326 178 66 86 -0.04532 -0.986578 -0.156876
-0.638972 0.773471 1.87326 178 66 86 -0.269169 -0.95336 0.136573
-0.676931 0.762983 1.87326 170 52 30 0.348503 -0.552742 -0.756982
-0.635957 0.77303 1.87326 178 66 86 -0.080114 -0.99662 0.018159
-0.632942 0.773109 1.87326 185 61 87 0.031779 -0.980446 -0.194206
-0.654047 0.823629 1.87326 162 47 31 0.163061 0.183605 -0.969381
-0.629926 0.772827 1.87326 182 64 87 0.0245 -0.929702 -0.367497
-0.626911 0.772833 1.87326 187 57 87 0.006549 -0.899842 -0.436168
-0.623896 0.773013 1.87326 188 56 87 0.08564 -0.782371 -0.616897
-0.620881 0.773556 1.87326 187 51 87 0.376423 -0.802502 -0.462921
-0.61962 0.775044 1.87326 184 51 83 0.707673 -0.251723 -0.660178
-0.656292 0.826301 1.87326 162 47 31 0.264131 0.094056 -0.95989
-0.656577 0.829316 1.87326 170 54 35 0.330406 0.001247 -0.943838
-0.656873 0.832331 1.87326 170 54 35 0.25935 -0.020699 -0.965562
-0.618767 0.778059 1.87326 182 50 82 0.655625 -0.136526 -0.742642
-0.656069 0.835347 1.87326 169 52 34 0.227263 -0.005888 -0.973816
-0.657063 0.837597 1.87326 169 52 34 0.169785 0.122691 -0.977814
-0.658031 0.838362 1.87326 169 52 34 0.173784 0.173784 -0.969329
-0.61808 0.781074 1.87326 179 48 79 0.641751 0.058601 -0.76467
-0.619193 0.784089 1.87326 177 47 77 0.713468 0.169582 -0.679857
-0.629926 0.807521 1.87326 169 37 64 0.494414 0.779716 -0.384184
-0.619764 0.787104 1.87326 150 28 52 0.809674 0.362517 -0.46153
-0.620881 0.789647 1.87326 157 29 56 0.78624 0.358551 -0.503258
-0.621184 0.79012 1.87326 157 29 56 0.780907 0.401006 -0.478935
-0.631505 0.80821 1.87326 169 37 64 0.356653 0.804468 -0.475004
-0.622716 0.793135 1.87326 167 32 64 0.848044 0.314722 -0.426347
-0.623699 0.79615 1.87326 172 33 68 0.824794 0.258425 -0.502923
-0.641987 0.812647 1.87326 168 34 63 0.539194 0.620326 -0.569619
-0.643166 0.814241 1.87326 168 34 63 0.688236 0.199511 -0.697515
-0.643527 0.817256 1.87326 170 32 65 0.66866 0.193031 -0.718076
-0.645002 0.819776 1.87326 168 37 63 0.54703 0.361981 -0.754803
-0.64569 0.820271 1.87326 168 37 63 0.26434 0.374855 -0.888599
-0.638972 0.811029 1.87326 171 34 67 0.301153 0.779173 -0.549724
-0.639443 0.811226 1.87326 171 34 67 0.400146 0.756194 -0.51774
-0.635957 0.809874 1.87326 168 33 64 0.345169 0.812818 -0.469239
-0.632942 0.808787 1.87326 160 30 55 0.351373 0.855989 -0.379236
-0.623896 0.796999 1.87326 173 33 70 0.709248 0.251159 -0.6587
-0.62543 0.799165 1.87326 173 33 70 0.577877 0.221545 -0.785478
-0.625582 0.80218 1.87326 173 33 70 0.72822 0.314862 -0.608734
-0.626911 0.805186 1.87326 180 43 77 0.581852 0.288535 -0.760392
-0.626919 0.805195 1.87326 180 43 77 0.467351 0.604709 -0.644911
-0.651032 0.822573 1.87326 149 29 30 0.114627 0.385314 -0.915638
-0.653046 0.823286 1.87326 149 29 30 0.179904 0.349892 -0.919353
-0.648017 0.821792 1.87326 161 33 48 0.167867 0.403169 -0.899597
-0.675153 0.76377 1.87326 170 52 30 0.240035 -0.487713 -0.839356
-0.672138 0.765516 1.87326 170 52 30 0.172462 -0.476112 -0.862308
-0.669123 0.765446 1.87326 171 54 35 0.026343 -0.572612 -0.819403
-0.666108 0.765833 1.87326 171 54 35 0.199377 -0.666137 -0.718686
-0.665906 0.765998 1.87326 160 55 38 0.451825 -0.575202 -0.681906
-0.663093 0.768324 1.87326 168 53 34 0.417274 -0.549219 -0.724045
-0.661928 0.769014 1.87326 161 54 37 0.387309 -0.591676 -0.707044
-0.660078 0.770399 1.87326 157 56 39 0.435018 -0.638359 -0.635026
-0.657282 0.772029 1.87326 153 56 42 0.318517 -0.779485 -0.539397
-0.657063 0.772096 1.87326 142 71 61 0.071684 -0.944931 -0.319322
-0.654047 0.772455 1.87326 142 87 81 0.041138 -0.961132 -0.273006
-0.651032 0.772363 1.87326 150 93 89 0.095156 -0.952868 -0.288076
-0.648017 0.773012 1.87326 167 92 95 0.234547 -0.916606 -0.323762
-0.645002 0.774143 1.87326 174 76 88 0.198682 -0.961833 -0.188156
-0.666108 0.817256 1.87025 162 47 32 0.173907 0.202674 -0.96368
-0.684199 0.759968 1.87201 169 54 39 0.289421 -0.622016 -0.727551
-0.663093 0.817256 1.87065 162 47 32 0.052545 0.308862 -0.949654
-0.681184 0.762983 1.87074 169 54 39 0.398289 -0.61644 -0.679241
-0.660078 0.817256 1.87054 164 48 34 0.003845 0.388341 -0.921508
-0.626911 0.775044 1.87081 187 57 87 0.10489 -0.701727 -0.704682
-0.678169 0.762983 1.87261 169 54 39 0.406668 -0.62577 -0.665607
-0.666108 0.820271 1.87074 164 48 34 0.177822 0.159912 -0.970983
-0.623896 0.775044 1.87106 188 56 87 0.152549 -0.409175 -0.899614
-0.663093 0.820271 1.87143 164 48 34 0.173561 0.19966 -0.964372
-0.623896 0.778059 1.87044 187 53 86 0.255236 -0.216606 -0.942304
-0.660078 0.820271 1.87174 167 50 36 0.057796 0.309528 -0.949132
-0.620881 0.775044 1.87145 187 51 87 0.349438 -0.483469 -0.80259
-0.657063 0.817256 1.87056 149 29 31 0.044085 0.412797 -0.909756
-0.654047 0.817256 1.87077 149 29 31 0.081513 0.435195 -0.896639
-0.675153 0.765998 1.872 170 52 30 0.422947 -0.515107 -0.745507
-0.657063 0.820271 1.87189 146 29 26 0.053674 0.354774 -0.93341
-0.654047 0.820271 1.87212 152 29 36 0.08195 0.369447 -0.925631
-0.669123 0.820271 1.87035 169 52 34 0.130482 0.162792 -0.977995
-0.620881 0.778059 1.87123 184 51 83 0.479613 -0.125304 -0.868488
-0.672138 0.823286 1.87044 169 52 34 0.158288 0.163353 -0.973787
-0.669123 0.823286 1.87081 169 52 34 0.128705 0.176188 -0.975906
-0.666108 0.823286 1.87122 169 52 34 0.156339 0.146333 -0.976803
-0.672138 0.826301 1.87083 169 52 34 0.161351 0.080078 -0.983643
-0.669123 0.826301 1.87144 169 52 34 0.116712 0.075112 -0.990321
-0.666108 0.826301 1.87153 169 52 34 0.134175 0.073505 -0.988228
-0.663093 0.823286 1.87191 174 53 31 0.216283 0.110039 -0.97011
-0.620881 0.781074 1.87118 176 47 76 0.652652 -0.032421 -0.756964
-0.660078 0.823286 1.8726 169 52 34 0.149075 0.107867 -0.982925
-0.620881 0.784089 1.87147 177 47 77 0.745657 0.110741 -0.657064
-0.672138 0.765998 1.87311 170 52 30 0.131688 -0.364569 -0.921818
-0.669123 0.765998 1.87294 171 54 35 -0.023432 -0.563738 -0.825621
-0.663093 0.826301 1.87212 173 53 32 0.156191 0.005618 -0.987711
-0.620881 0.787104 1.87177 171 43 72 0.791785 0.220712 -0.569529
-0.666108 0.765998 1.87314 171 54 35 0.082788 -0.478486 -0.874184
-0.660078 0.826301 1.87248 174 55 32 0.158945 -0.060046 -0.98546
-0.672138 0.769014 1.87192 171 54 35 0.064697 -0.642653 -0.763421
-0.623896 0.793135 1.87143 165 31 63 0.693235 0.37708 -0.614196
-0.657063 0.823286 1.87289 148 34 26 0.093497 0.208186 -0.97361
-0.626911 0.79615 1.87066 171 32 68 0.556297 0.373584 -0.742273
-0.666108 0.769014 1.87153 173 55 36 0.284985 -0.530607 -0.798273
-0.623896 0.79615 1.87298 166 31 64 0.593401 0.358002 -0.720909
-0.654047 0.823286 1.87313 162 47 31 0.080116 0.319149 -0.944312
-0.663093 0.769014 1.87278 168 53 34 0.308885 -0.558553 -0.769811
-0.657063 0.826301 1.87304 172 54 34 0.17196 0.007972 -0.985072
-0.663093 0.772029 1.87053 154 53 39 0.327027 -0.571894 -0.752323
-0.660078 0.772029 1.87196 157 56 39 0.267995 -0.737383 -0.620036
-0.666108 0.829316 1.87167 169 52 33 0.10348 0.016339 -0.994497
-0.663093 0.829316 1.87195 169 52 33 0.084543 -0.013912 -0.996323
-0.660078 0.829316 1.87213 169 52 33 0.173784 -0.003408 -0.984778
-0.666108 0.832331 1.87176 169 52 33 0.100119 0.057372 -0.99332
-0.663093 0.832331 1.87219 169 52 33 0.086874 0.045086 -0.995199
-0.660078 0.832331 1.87225 169 52 33 0.16659 0.060256 -0.984183
-0.657063 0.829316 1.87305 175 56 35 0.27132 -0.013384 -0.962396
-0.657063 0.832331 1.8732 170 54 35 0.269248 0.028277 -0.962656
-0.660078 0.835347 1.87249 169 52 34 0.135905 0.06621 -0.988507
-0.657063 0.835347 1.87304 169 52 34 0.190339 0.008075 -0.981685
-0.660078 0.838362 1.87288 169 52 34 0.145004 0.170222 -0.974679
-0.629926 0.80218 1.87041 170 38 66 0.470089 0.208762 -0.857575
-0.635957 0.80821 1.87144 170 38 66 0.314908 0.634661 -0.705718
-0.629926 0.805195 1.87109 171 38 67 0.400915 0.445998 -0.80022
-0.632942 0.80821 1.87256 175 40 72 0.257812 0.61527 -0.744967
-0.641987 0.811226 1.87144 168 34 63 0.416243 0.735417 -0.534699
-0.645002 0.814241 1.87184 168 34 63 0.507271 0.380858 -0.773061
-0.651032 0.817256 1.87109 168 35 61 0.081102 0.427503 -0.900369
-0.648017 0.817256 1.87127 168 35 61 0.246662 0.342992 -0.906374
-0.651032 0.820271 1.87243 168 35 61 0.090758 0.375223 -0.922481
-0.648017 0.820271 1.87266 168 35 61 0.155023 0.393958 -0.905961
-0.645002 0.817256 1.87224 169 34 64 0.353323 0.278782 -0.892997
-0.626911 0.799165 1.87223 177 33 74 0.728894 0.162822 -0.664983
-0.626911 0.80218 1.87212 175 33 71 0.587752 0.190829 -0.786214
-0.673153 0.759968 1.87628 170 52 30 0.253661 -0.597127 -0.760983
-0.672138 0.760337 1.87628 170 52 30 0.214608 -0.588241 -0.77969
-0.669123 0.761494 1.87628 171 54 35 0.275479 -0.613061 -0.740451
-0.641987 0.773492 1.87628 178 66 86 0.106364 -0.913071 -0.393684
-0.638972 0.773246 1.87628 178 66 86 -0.118225 -0.97691 -0.177959
-0.635957 0.772746 1.87628 178 66 86 -0.153744 -0.980271 -0.124225
-0.666235 0.762983 1.87628 171 54 35 0.322477 -0.659538 -0.678984
-0.666108 0.763052 1.87628 171 54 35 0.452505 -0.666235 -0.592765
-0.632942 0.772108 1.87628 182 64 87 -0.058497 -0.967074 -0.247681
-0.629926 0.772279 1.87628 179 67 87 -0.017748 -0.976117 -0.21652
-0.663093 0.765085 1.87628 160 55 38 0.448302 -0.681618 -0.578292
-0.66091 0.765998 1.87628 160 55 38 0.322477 -0.659538 -0.678984
-0.626911 0.772109 1.87628 188 56 87 -0.075546 -0.972188 -0.221684
-0.660078 0.766487 1.87628 168 54 35 0.617193 -0.563083 -0.549555
-0.658161 0.769014 1.87628 171 53 34 0.631386 -0.601079 -0.489955
-0.626764 0.772029 1.87628 190 56 89 -0.128336 -0.953922 -0.271226
-0.629926 0.80806 1.87628 171 38 67 0.501402 0.856862 -0.119932
-0.657063 0.769774 1.87628 159 56 41 0.352087 -0.782951 -0.512857
-0.621727 0.772029 1.87628 187 53 86 0.223885 -0.911428 -0.345216
-0.630192 0.80821 1.87628 171 38 67 0.432842 0.88463 -0.173428
-0.620881 0.772352 1.87628 187 53 86 0.3193 -0.762147 -0.563187
-0.654047 0.770997 1.87628 137 58 47 0.252473 -0.882909 -0.39589
-0.635957 0.811109 1.87628 169 33 64 0.406078 0.84794 -0.340732
-0.617866 0.77243 1.87628 184 51 83 0.09222 -0.657252 -0.748008
-0.636205 0.811226 1.87628 169 33 64 0.391253 0.828442 -0.400757
-0.651032 0.771718 1.87628 162 56 40 0.162774 -0.927948 -0.335286
-0.638972 0.81277 1.87628 169 33 64 0.513206 0.690405 -0.509863
-0.614851 0.773076 1.87628 181 52 82 0.323121 -0.554612 -0.766811
-0.648017 0.771986 1.87628 162 56 40 0.089743 -0.933593 -0.346916
-0.640193 0.814241 1.87628 169 33 64 0.64727 0.311529 -0.695694
-0.632942 0.809667 1.87628 160 30 55 0.441712 0.873014 -0.206727
-0.64784 0.772029 1.87628 162 56 40 0.216912 -0.904043 -0.368314
-0.649468 0.832331 1.87628 177 55 34 0.584161 -0.07607 -0.808065
-0.613639 0.775044 1.87628 180 50 81 0.698872 -0.18976 -0.689615
-0.641008 0.817256 1.87628 169 33 64 0.64132 0.110572 -0.759264
-0.649357 0.835347 1.87628 177 55 34 0.598009 0.094576 -0.79589
-0.61406 0.778059 1.87628 180 48 79 0.768196 0.158469 -0.620292
-0.623896 0.771594 1.87628 178 65 85 -0.03462 -0.939865 -0.339787
-0.650645 0.838362 1.87628 177 55 34 0.476671 0.162802 -0.863875
-0.621933 0.79615 1.87628 172 37 72 0.858681 0.154122 -0.488788
-0.614462 0.781074 1.87628 171 43 71 0.84339 0.18062 -0.506034
-0.645002 0.772729 1.87628 168 92 94 0.238344 -0.88972 -0.389345
-0.622421 0.799165 1.87628 172 37 72 0.822532 0.166304 -0.54386
-0.614851 0.78178 1.87628 166 37 64 0.659022 0.484624 -0.575177
-0.623059 0.80218 1.87628 172 37 72 0.804889 0.261003 -0.532946
-0.616964 0.784089 1.87628 166 37 64 0.708288 0.43957 -0.552365
-0.623896 0.803564 1.87628 161 32 56 0.681316 0.581367 -0.444771
-0.617866 0.786342 1.87628 169 42 70 0.842695 0.33614 -0.420566
-0.625518 0.805195 1.87628 161 32 56 0.689578 0.600281 -0.405148
-0.618124 0.787104 1.87628 169 42 70 0.765397 0.504281 -0.399834
-0.626911 0.806285 1.87628 164 34 59 0.527366 0.825244 -0.202132
-0.620881 0.791189 1.87628 156 28 55 0.843107 0.342561 -0.414515
-0.648017 0.826047 1.87628 149 31 29 0.167581 0.590307 -0.789592
-0.6215 0.793135 1.87628 156 28 55 0.891036 0.175309 -0.418714
-0.648366 0.826301 1.87628 149 31 29 0.398775 0.361243 -0.842901
-0.645002 0.825428 1.87628 149 30 33 0.169909 0.551829 -0.816466
-0.650057 0.829316 1.87628 146 35 22 0.507273 0.092361 -0.856822
-0.681184 0.759968 1.87349 169 54 39 0.298537 -0.579512 -0.758315
-0.678169 0.759968 1.87483 169 54 39 0.304114 -0.539763 -0.784965
-0.675153 0.759968 1.87575 170 52 30 0.249026 -0.518159 -0.818228
-0.623896 0.772029 1.87511 190 56 89 0.059947 -0.923181 -0.379663
-0.654047 0.826301 1.87394 157 44 31 0.347043 0.185562 -0.919309
-0.675153 0.762983 1.87391 170 52 30 0.209541 -0.539913 -0.815222
-0.654047 0.829316 1.87423 166 52 35 0.384864 0.011585 -0.922901
-0.617866 0.775044 1.87486 184 51 83 0.403908 -0.388069 -0.828408
-0.672138 0.762983 1.87449 170 52 30 0.190505 -0.505514 -0.841524
-0.654047 0.832331 1.87399 175 56 35 0.320049 -0.07446 -0.94447
-0.617866 0.778059 1.87407 181 49 79 0.574517 -0.131445 -0.807869
-0.654047 0.835347 1.87376 169 52 34 0.379601 0.062601 -0.92303
-0.669123 0.762983 1.87514 171 54 35 0.168079 -0.595092 -0.785885
-0.657063 0.838362 1.87345 169 52 34 0.22317 0.253665 -0.941195
-0.617866 0.781074 1.87345 177 47 77 0.674517 0.185915 -0.714466
-0.663093 0.765998 1.87553 160 55 38 0.409766 -0.602207 -0.685156
-0.654047 0.838362 1.87387 169 52 34 0.368066 0.200632 -0.907896
-0.617866 0.784089 1.87447 177 47 77 0.796041 0.254921 -0.54894
-0.651032 0.832331 1.87499 177 55 34 0.477967 -0.103536 -0.872254
-0.614851 0.775044 1.87566 181 52 82 0.316001 -0.079984 -0.945381
-0.651032 0.835347 1.8749 177 55 34 0.441073 0.099416 -0.891948
-0.660078 0.769014 1.87451 168 54 35 0.443909 -0.563615 -0.696622
-0.614851 0.778059 1.87585 180 49 80 0.442221 -0.028056 -0.896467
-0.651032 0.838362 1.87599 177 55 34 0.521316 0.205183 -0.82833
-0.641987 0.814241 1.87447 168 34 63 0.682103 0.27955 -0.675713
-0.657063 0.772029 1.87337 159 56 41 0.184917 -0.777874 -0.600598
-0.614851 0.781074 1.87593 172 45 73 0.579409 -0.006849 -0.815008
-0.654047 0.772029 1.87427 137 58 47 0.176992 -0.852238 -0.492305
-0.641987 0.817256 1.8753 169 34 64 0.742131 0.143007 -0.654821
-0.645002 0.820271 1.8736 169 34 64 0.55771 0.337859 -0.758163
-0.620881 0.79012 1.87426 150 28 52 0.873818 0.427166 -0.232319
-0.638972 0.811226 1.87365 169 33 64 0.382182 0.826211 -0.413898
-0.651032 0.772029 1.8748 162 56 40 0.089918 -0.952609 -0.290604
-0.648017 0.772029 1.87616 162 56 40 0.164878 -0.944304 -0.28479
-0.623896 0.799165 1.874 173 33 70 0.70032 0.240784 -0.671993
-0.623896 0.80218 1.8752 168 33 66 0.677287 0.255371 -0.689977
-0.626911 0.805195 1.87328 164 34 59 0.705475 0.627629 -0.329222
-0.651032 0.823286 1.87357 149 31 30 0.146105 0.455673 -0.878075
-0.648017 0.823286 1.8741 149 31 30 0.205742 0.531882 -0.821445
-0.645002 0.823286 1.87482 151 31 36 0.308577 0.403761 -0.861253
-0.651032 0.829316 1.8757 165 52 35 0.43089 0.006548 -0.902381
-0.653059 0.844392 1.87628 175 55 34 0.447638 0.206716 -0.869994
-0.654047 0.845948 1.87628 163 50 55 0.306704 0.232524 -0.922965
-0.658711 0.850422 1.87628 163 50 55 0.231704 0.299935 -0.925393
-0.660078 0.851305 1.87628 163 50 55 0.194313 0.338985 -0.920506
-0.686257 0.753938 1.87628 169 54 39 0.293651 -0.544445 -0.785715
-0.684199 0.754979 1.87628 169 54 39 0.300166 -0.601937 -0.739981
-0.678169 0.75778 1.87628 169 54 39 0.274413 -0.585308 -0.762963
-0.678169 0.832331 1.87064 168 43 46 0.081564 0.102243 -0.99141
-0.666108 0.844392 1.87322 163 50 55 0.116327 0.223706 -0.96769
-0.672138 0.832331 1.87111 169 52 34 0.098703 0.069206 -0.992707
-0.672138 0.838362 1.87168 169 52 34 0.075394 0.12411 -0.9894
-0.666108 0.838362 1.87205 169 52 34 0.103281 0.127023 -0.986508
-0.660078 0.844392 1.87408 163 50 55 0.195754 0.236255 -0.951769
-0.660078 0.850422 1.87595 163 50 55 0.164159 0.280835 -0.945613
-0.654047 0.844392 1.87587 163 50 55 0.249699 0.260984 -0.93249
-0.690229 0.753938 1.87479 169 54 39 0.231894 -0.577401 -0.782837
-0.666263 0.759968 1.87929 171 54 35 0.384921 -0.642636 -0.662461
-0.666108 0.760076 1.87929 171 54 35 0.504088 -0.632218 -0.588384
-0.663093 0.762493 1.87929 160 55 38 0.521642 -0.629684 -0.575663
-0.662579 0.762983 1.87929 160 55 38 0.563463 -0.647562 -0.513004
-0.660078 0.765466 1.87929 160 55 38 0.607648 -0.614381 -0.503288
-0.654047 0.76949 1.87929 142 59 49 0.287122 -0.855225 -0.431451
-0.651032 0.770753 1.87929 142 59 49 0.169934 -0.887434 -0.428466
-0.648017 0.770646 1.87929 150 65 55 0.045456 -0.866412 -0.497257
-0.645002 0.771093 1.87929 162 57 41 0.21254 -0.743113 -0.634516
-0.642462 0.772029 1.87929 162 57 41 0.293143 -0.784357 -0.546673
-0.632942 0.771338 1.87929 154 85 78 -0.122401 -0.794869 -0.594308
-0.633831 0.772029 1.87929 154 85 78 -0.373922 -0.819446 -0.434386
-0.629926 0.77143 1.87929 169 92 97 0.028351 -0.881587 -0.47117
-0.659632 0.765998 1.87929 160 55 38 0.647129 -0.620374 -0.443125
-0.626911 0.770878 1.87929 176 70 86 -0.116571 -0.941947 -0.314876
-0.623896 0.770567 1.87929 176 70 86 0.034022 -0.951359 -0.306199
-0.620881 0.770778 1.87929 178 65 85 0.014093 -0.928826 -0.370249
-0.657063 0.768484 1.87929 167 53 36 0.512517 -0.65703 -0.552846
-0.617866 0.770826 1.87929 181 59 84 0.047686 -0.884236 -0.464599
-0.655936 0.769014 1.87929 167 53 36 0.29699 -0.779798 -0.5511
-0.614851 0.771566 1.87929 179 58 83 0.233684 -0.800096 -0.552484
-0.613747 0.772029 1.87929 179 59 83 0.442037 -0.720172 -0.534748
-0.619896 0.79615 1.87929 152 30 56 0.748056 0.08895 -0.657648
-0.641987 0.772232 1.87929 167 99 98 0.105532 -0.94177 -0.319267
-0.614851 0.784684 1.87929 157 32 54 0.657111 0.549553 -0.515942
-0.638972 0.77279 1.87929 162 97 96 0.047988 -0.96837 -0.244861
-0.616757 0.787104 1.87929 157 32 54 0.729889 0.475007 -0.491558
-0.614425 0.784089 1.87929 150 26 48 0.704944 0.394571 -0.589379
-0.617866 0.788825 1.87929 150 26 48 0.753424 0.484227 -0.444832
-0.635957 0.772529 1.87929 165 97 97 -0.142119 -0.969224 -0.201015
-0.635957 0.812482 1.87929 164 33 60 0.601311 0.614786 -0.510356
-0.636872 0.814241 1.87929 164 33 60 0.803345 0.236824 -0.546398
-0.611836 0.773449 1.87929 177 50 78 0.603417 -0.529046 -0.596656
-0.611186 0.775044 1.87929 175 45 76 0.751444 0.129971 -0.646869
-0.632942 0.810014 1.87929 159 31 51 0.507452 0.804652 -0.308265
-0.634682 0.811226 1.87929 159 31 51 0.541183 0.785589 -0.299952
-0.629926 0.808351 1.87929 159 31 51 0.453442 0.830003 -0.324784
-0.611739 0.778059 1.87929 175 45 76 0.817922 0.162986 -0.551761
-0.637369 0.817256 1.87929 165 33 56 0.64352 -0.035203 -0.76462
-0.636446 0.820271 1.87929 162 33 52 0.473198 -0.140368 -0.869701
-0.611836 0.778328 1.87929 166 39 67 0.78465 0.318015 -0.532156
-0.620275 0.799165 1.87929 167 34 65 0.759287 0.181801 -0.624846
-0.612836 0.781074 1.87929 166 39 67 0.801715 0.305189 -0.51392
-0.641987 0.828403 1.87929 148 39 24 0.109769 0.581044 -0.806436
-0.638972 0.82824 1.87929 148 39 24 0.277644 0.591778 -0.756778
-0.635957 0.826393 1.87929 145 35 21 0.625987 0.511251 -0.588866
-0.645002 0.835068 1.87929 176 56 34 0.505982 0.238381 -0.828949
-0.645185 0.835347 1.87929 176 56 34 0.564128 0.069628 -0.822746
-0.620881 0.801278 1.87929 164 35 62 0.814493 0.387322 -0.431952
-0.621253 0.80218 1.87929 164 35 62 0.78089 0.574322 -0.245691
-0.643708 0.832331 1.87929 176 56 34 0.513455 0.171152 -0.840875
-0.645432 0.838362 1.87929 176 56 34 0.497231 0.09208 -0.862718
-0.623896 0.805147 1.87929 159 31 53 0.704815 0.633524 -0.319192
-0.62397 0.805195 1.87929 159 31 53 0.573206 0.777362 -0.259121
-0.626911 0.806902 1.87929 161 31 54 0.46153 0.809674 -0.362517
-0.629646 0.80821 1.87929 161 31 54 0.368542 0.842157 -0.393634
-0.643042 0.829316 1.87929 147 35 21 0.390274 0.307628 -0.867785
-0.672138 0.759968 1.87658 171 54 35 0.251179 -0.630318 -0.734581
-0.669123 0.759968 1.87765 171 54 35 0.337421 -0.63735 -0.692772
-0.666108 0.762983 1.87636 171 54 35 0.492619 -0.617035 -0.613672
-0.663093 0.762983 1.87882 160 55 38 0.478256 -0.666202 -0.572229
-0.645002 0.772029 1.87776 162 57 41 0.219208 -0.875341 -0.43096
-0.660078 0.765998 1.87759 160 55 38 0.625234 -0.697062 -0.35098
-0.657063 0.769014 1.87826 167 53 36 0.559768 -0.759801 -0.330699
-0.632942 0.772029 1.87726 154 85 78 -0.112598 -0.970365 -0.213809
-0.620881 0.793135 1.87741 145 25 47 0.818814 0.169772 -0.54838
-0.629926 0.772029 1.87772 169 92 97 -0.025494 -0.967573 -0.251302
-0.641987 0.826301 1.87761 148 39 24 0.141574 0.58269 -0.800268
-0.620881 0.79615 1.87812 152 28 56 0.831911 0.0966 -0.546437
-0.626911 0.772029 1.87645 176 70 86 -0.158815 -0.917755 -0.36401
-0.638972 0.826301 1.87778 148 39 24 0.305795 0.404142 -0.862067
-0.648017 0.832331 1.87737 177 56 36 0.47117 -0.028351 -0.881587
-0.620881 0.772029 1.87697 178 65 85 0.05017 -0.893572 -0.446108
-0.648017 0.835347 1.87729 177 56 36 0.519669 0.105085 -0.847881
-0.648017 0.838362 1.8779 177 56 36 0.505878 0.123208 -0.85376
-0.617866 0.772029 1.87682 181 59 84 0.094189 -0.878625 -0.468131
-0.645002 0.832331 1.87851 176 56 34 0.418052 0.072172 -0.905552
-0.614851 0.772029 1.87818 179 58 83 0.39949 -0.767999 -0.500585
-0.611836 0.775044 1.87843 177 50 78 0.775852 -0.023765 -0.630467
-0.611836 0.778059 1.87911 174 47 74 0.777516 0.138789 -0.613357
-0.614851 0.784089 1.87866 173 45 74 0.694494 0.503717 -0.513758
-0.617866 0.787104 1.87689 157 32 54 0.776254 0.507239 -0.374352
-0.629926 0.80821 1.87813 170 38 66 0.470926 0.874983 -0.112396
-0.635957 0.811226 1.87662 163 33 58 0.488442 0.818257 -0.303116
-0.638972 0.814241 1.87732 163 33 58 0.649312 0.265122 -0.712814
-0.638972 0.817256 1.87803 168 33 62 0.637026 0.076559 -0.767031
-0.638972 0.820271 1.87779 168 32 62 0.5331 -0.124147 -0.836894
-0.620881 0.799165 1.87841 167 35 64 0.81294 0.128359 -0.568025
-0.648017 0.826301 1.87641 155 40 30 0.23002 0.367738 -0.901032
-0.645002 0.826301 1.87702 144 31 25 0.204391 0.507192 -0.837246
-0.648017 0.829316 1.87749 147 36 22 0.4033 0.097728 -0.909834
-0.638972 0.823286 1.87688 158 32 47 0.527155 -0.012196 -0.849682
-0.654047 0.767063 1.88231 159 57 43 0.28016 -0.677187 -0.680389
-0.651032 0.7684 1.88231 159 57 43 0.195756 -0.627344 -0.753737
-0.648017 0.768317 1.88231 170 52 35 -0.090667 -0.554075 -0.827515
-0.645002 0.767327 1.88231 169 53 34 0.057127 -0.51693 -0.854119
-0.642822 0.769014 1.88231 170 54 32 0.323359 -0.571106 -0.754504
-0.611836 0.784137 1.88231 159 28 57 0.639704 0.545183 -0.541807
-0.632942 0.822193 1.88231 142 35 21 0.666456 0.398551 -0.630074
-0.633651 0.823286 1.88231 142 35 21 0.786521 0.157906 -0.597034
-0.614579 0.787104 1.88231 159 28 57 0.634235 0.503014 -0.58713
-0.641987 0.76956 1.88231 150 63 52 0.283304 -0.638634 -0.715462
-0.614851 0.787385 1.88231 150 26 48 0.675012 0.431674 -0.598344
-0.638972 0.77083 1.88231 150 87 79 0.171638 -0.618199 -0.767053
-0.635386 0.829316 1.88231 167 52 32 0.34777 -0.08128 -0.93405
-0.635957 0.770447 1.88231 150 87 79 -0.261515 -0.645071 -0.717978
-0.632942 0.832157 1.88231 168 53 32 0.127871 -0.264971 -0.95574
-0.632942 0.768702 1.88231 148 66 57 0.198747 -0.82078 -0.535555
-0.633907 0.769014 1.88231 148 66 57 -0.123448 -0.638063 -0.760024
-0.629926 0.831474 1.88231 167 52 32 0.006557 -0.434043 -0.900868
-0.630602 0.769014 1.88231 154 85 78 0.324057 -0.837539 -0.439904
-0.629926 0.769716 1.88231 154 95 87 0.185323 -0.861382 -0.472945
-0.626911 0.769926 1.88231 176 70 86 -0.008977 -0.924588 -0.380863
-0.626911 0.832171 1.88231 175 54 30 0.09742 -0.391052 -0.915198
-0.626312 0.832331 1.88231 175 54 31 0.09747 -0.279415 -0.95521
-0.663007 0.759968 1.88231 160 55 38 0.433108 -0.515448 -0.739413
-0.660078 0.762481 1.88231 160 55 38 0.508513 -0.545435 -0.66627
-0.623896 0.769885 1.88231 176 70 86 -0.033881 -0.954931 -0.294887
-0.659664 0.762983 1.88231 160 55 38 0.53046 -0.554036 -0.641604
-0.657063 0.765435 1.88231 160 55 38 0.534678 -0.544798 -0.645999
-0.620881 0.769646 1.88231 173 74 86 -0.064997 -0.92986 -0.362128
-0.656383 0.765998 1.88231 160 55 38 0.344527 -0.62864 -0.697218
-0.616504 0.79012 1.88231 150 26 48 0.756953 0.299261 -0.580917
-0.617866 0.769277 1.88231 175 69 85 -0.077445 -0.911682 -0.403531
-0.611801 0.784089 1.88231 154 27 53 0.755093 0.246465 -0.607528
-0.614851 0.76918 1.88231 179 59 83 0.25074 -0.798942 -0.546645
-0.611836 0.770992 1.88231 180 59 83 0.447408 -0.696892 -0.560507
-0.616403 0.793135 1.88231 145 18 45 0.739807 0.029592 -0.672168
-0.610461 0.772029 1.88231 179 59 83 0.511355 -0.595738 -0.619365
-0.616319 0.79615 1.88231 170 34 67 0.744967 0.257812 -0.61527
-0.608821 0.773077 1.88231 176 46 77 0.629226 -0.43228 -0.645917
-0.629926 0.809838 1.88231 159 31 51 0.380782 0.74032 -0.554014
-0.607895 0.775044 1.88231 175 45 76 0.790005 -0.073388 -0.608692
-0.608821 0.777569 1.88231 173 43 73 0.551802 0.326576 -0.767374
-0.609676 0.778059 1.88231 173 43 73 0.690097 0.294377 -0.661142
-0.631562 0.811226 1.88231 159 31 51 0.439635 0.413869 -0.797141
-0.610828 0.781074 1.88231 170 40 69 0.685381 0.301568 -0.662804
-0.632942 0.812511 1.88231 159 31 51 0.376981 0.460398 -0.803691
-0.635267 0.814241 1.88231 159 31 51 0.456558 0.070346 -0.886908
-0.632942 0.815784 1.88231 153 33 43 0.264021 -0.34367 -0.901212
-0.63129 0.817256 1.88231 144 33 26 0.530657 0.092972 -0.842472
-0.617866 0.799069 1.88231 171 37 66 0.703346 0.258793 -0.662066
-0.617952 0.799165 1.88231 171 37 66 0.741037 0.586049 -0.327735
-0.620881 0.801923 1.88231 167 35 64 0.687372 0.708615 -0.159325
-0.621071 0.80218 1.88231 167 35 64 0.841323 0.534871 -0.078032
-0.623896 0.806902 1.88231 162 31 54 0.700566 0.372432 -0.608688
-0.625001 0.80821 1.88231 162 31 54 0.34499 0.515078 -0.784651
-0.623106 0.805195 1.88231 159 33 54 0.825487 0.492805 -0.275162
-0.626911 0.809081 1.88231 167 34 62 0.131179 0.471378 -0.872121
-0.654047 0.769014 1.8801 159 57 43 0.307916 -0.723844 -0.617444
-0.651032 0.769014 1.88186 159 57 43 0.122828 -0.788763 -0.602301
-0.648017 0.769014 1.88177 170 52 35 -0.04662 -0.78971 -0.611707
-0.617866 0.79615 1.88125 164 35 64 0.696798 0.110955 -0.708633
-0.645002 0.769014 1.88141 169 53 34 0.070919 -0.678793 -0.730897
-0.641987 0.772029 1.87954 150 63 52 0.31504 -0.69955 -0.641389
-0.638972 0.772029 1.88111 150 87 79 0.02063 -0.832085 -0.554265
-0.635957 0.820271 1.87951 142 35 21 0.469726 -0.115647 -0.875205
-0.635957 0.772029 1.88034 150 87 79 -0.19679 -0.806992 -0.55681
-0.611836 0.784089 1.88227 159 28 57 0.765106 0.305084 -0.567041
-0.632942 0.820271 1.88118 142 35 21 0.577665 0.02355 -0.815934
-0.635957 0.814241 1.88175 162 32 58 0.805498 0.067006 -0.588798
-0.632942 0.811226 1.88099 159 31 51 0.541117 0.632146 -0.554603
-0.641987 0.829316 1.87975 154 43 27 0.168861 0.295164 -0.940406
-0.632942 0.769014 1.88128 148 66 57 -0.162389 -0.736064 -0.657145
-0.638972 0.829316 1.88 154 43 27 0.274921 0.383087 -0.881852
-0.635957 0.829316 1.88183 154 43 27 0.539815 0.343226 -0.768632
-0.635957 0.817256 1.87993 165 33 56 0.440233 -0.295033 -0.848027
-0.641987 0.832331 1.88046 171 56 35 0.345598 0.179147 -0.921124
-0.632942 0.817256 1.88156 153 33 43 0.499974 -0.160759 -0.850989
-0.638972 0.832331 1.88104 171 56 35 0.238066 0.184266 -0.953609
-0.635957 0.832331 1.88184 154 43 27 0.187766 -0.041332 -0.981344
-0.611836 0.772029 1.88103 180 59 83 0.502378 -0.670397 -0.546063
-0.632942 0.832331 1.88221 168 53 32 -0.022785 -0.231452 -0.972579
-0.623896 0.805195 1.87952 161 31 54 0.669254 0.672495 -0.315991
-0.629926 0.832331 1.88176 167 52 32 0.010481 -0.201478 -0.979437
-0.626911 0.80821 1.8814 161 31 54 0.305964 0.80058 -0.515225
-0.608821 0.775044 1.88147 176 46 77 0.644981 -0.1201 -0.754702
-0.666108 0.759968 1.8794 171 54 35 0.562421 -0.565798 -0.602955
-0.645002 0.835347 1.87942 176 56 34 0.465556 0.059053 -0.883046
-0.611836 0.781074 1.88118 168 41 67 0.795787 0.285223 -0.534202
-0.663093 0.759968 1.88223 160 55 38 0.545344 -0.602749 -0.582489
-0.641987 0.835347 1.88098 176 56 34 0.344332 0.103975 -0.933073
-0.660078 0.762983 1.8819 160 55 38 0.587462 -0.573918 -0.570532
-0.645002 0.838362 1.87951 176 56 34 0.400751 -0.001289 -0.916186
-0.657063 0.765998 1.88189 160 55 38 0.549952 -0.587179 -0.593948
-0.641987 0.838362 1.88101 176 56 34 0.247228 -0.04305 -0.968001
-0.638972 0.835347 1.88143 173 53 31 0.107561 -0.011951 -0.994127
-0.635957 0.835347 1.88155 173 53 31 0.03455 -0.112567 -0.993043
-0.638972 0.838362 1.88116 173 53 31 0.11186 -0.00543 -0.993709
-0.635957 0.838362 1.88133 173 53 31 0.023109 0.007033 -0.999708
-0.632942 0.835347 1.88151 169 50 31 -0.025558 -0.121122 -0.992309
-0.629926 0.835347 1.88155 169 50 31 0.062964 -0.07401 -0.995268
-0.632942 0.838362 1.88132 169 50 31 0.033602 0.081294 -0.996124
-0.626911 0.832331 1.88227 175 54 30 0.139303 -0.141768 -0.980049
-0.672138 0.75308 1.88231 163 55 40 0.319745 -0.507456 -0.800157
-0.670926 0.753938 1.88231 163 55 40 0.370917 -0.573533 -0.730397
-0.666108 0.756847 1.88231 163 55 40 0.43178 -0.601825 -0.671843
-0.648017 0.844392 1.87847 175 55 34 0.388765 0.112064 -0.914496
-0.641987 0.844392 1.88065 175 55 34 0.267153 0.056441 -0.962
-0.654047 0.850422 1.87754 163 50 55 0.270701 0.270701 -0.923819
-0.648017 0.850422 1.87942 163 50 55 0.299984 0.196733 -0.933438
-0.684199 0.753938 1.87707 169 54 39 0.312416 -0.505891 -0.804034
-0.678169 0.753938 1.87942 169 54 39 0.297613 -0.561804 -0.771883
-0.672138 0.753938 1.88177 163 55 40 0.279183 -0.617393 -0.735447
-0.657408 0.759968 1.88532 161 47 45 0.370211 -0.433767 -0.821456
-0.657063 0.760301 1.88532 161 47 45 0.300293 -0.423491 -0.854681
-0.654047 0.762385 1.88532 161 47 45 0.279233 -0.41656 -0.865163
-0.652817 0.762983 1.88532 165 56 37 0.148571 -0.442827 -0.884212
-0.651032 0.763398 1.88532 165 56 37 0.019752 -0.420062 -0.907281
-0.648017 0.763212 1.88532 165 56 37 -0.055916 -0.451417 -0.89056
-0.60745 0.772029 1.88532 172 44 71 0.802767 -0.432754 -0.410231
-0.60605 0.775044 1.88532 172 44 71 0.893592 -0.234845 -0.382546
-0.645002 0.762563 1.88532 165 56 37 -0.134811 -0.4243 -0.89543
-0.605856 0.778059 1.88532 165 37 64 0.908837 0.261126 -0.325314
-0.646561 0.762983 1.88532 165 56 37 -0.106604 -0.479009 -0.871313
-0.607524 0.781074 1.88532 157 28 53 0.829625 0.503316 -0.241653
-0.641987 0.761535 1.88532 165 56 37 -0.122812 -0.371195 -0.920398
-0.608821 0.78293 1.88532 161 29 54 0.80109 0.495306 -0.336044
-0.60949 0.784089 1.88532 161 29 54 0.78318 0.47834 -0.397265
-0.638972 0.760862 1.88532 169 54 35 0.18178 -0.468491 -0.864565
-0.629633 0.820271 1.88532 149 37 21 0.704874 0.165942 -0.68965
-0.611836 0.787213 1.88532 164 29 57 0.804897 0.529825 -0.267257
-0.613899 0.79012 1.88532 164 29 57 0.804156 0.353317 -0.478017
-0.611729 0.787104 1.88532 163 30 56 0.780583 0.585824 -0.217945
-0.629216 0.826301 1.88532 149 37 21 0.268921 -0.361037 -0.892936
-0.637026 0.762983 1.88532 170 51 31 0.437623 -0.330962 -0.836032
-0.614349 0.793135 1.88532 168 32 62 0.950709 0.168565 -0.260265
-0.626911 0.827382 1.88532 166 50 30 0.087788 -0.571345 -0.816001
-0.614652 0.79615 1.88532 164 32 58 0.977164 0.133193 -0.165558
-0.635957 0.7642 1.88532 168 55 36 0.265126 -0.419657 -0.868099
-0.623896 0.827661 1.88532 170 54 32 0.084546 -0.560297 -0.823966
-0.633272 0.765998 1.88532 170 55 36 0.286171 -0.539139 -0.792108
-0.617866 0.80027 1.88532 164 31 54 0.59679 0.692674 -0.405024
-0.632942 0.766216 1.88532 163 56 40 0.227432 -0.691706 -0.685432
-0.629926 0.76757 1.88532 150 65 54 0.272746 -0.712968 -0.645977
-0.620198 0.80218 1.88532 164 31 54 0.637485 0.60048 -0.482739
-0.620881 0.803479 1.88532 162 34 56 0.744217 0.33887 -0.575593
-0.626911 0.768374 1.88532 153 62 51 0.164543 -0.792524 -0.587223
-0.621179 0.805195 1.88532 162 34 56 0.788589 0.088589 -0.608506
-0.623896 0.768712 1.88532 153 82 76 -0.081687 -0.818308 -0.568946
-0.620888 0.80821 1.88532 149 29 36 0.739725 0.117111 -0.66264
-0.614851 0.796631 1.88532 164 32 56 0.86139 0.428408 -0.2729
-0.620881 0.76783 1.88532 163 85 87 -0.101529 -0.748961 -0.654789
-0.617866 0.768002 1.88532 151 88 81 -0.017797 -0.839217 -0.543506
-0.616595 0.799165 1.88532 164 32 56 0.746931 0.526956 -0.405477
-0.614851 0.767828 1.88532 174 79 90 0.108671 -0.887714 -0.447385
-0.623896 0.813179 1.88532 143 34 21 0.491753 0.65623 -0.572313
-0.625191 0.814241 1.88532 143 34 21 0.581147 0.473961 -0.661536
-0.611836 0.768699 1.88532 176 75 89 0.272173 -0.865174 -0.421183
-0.621804 0.811226 1.88532 143 33 24 0.697773 0.366126 -0.615682
-0.611171 0.769014 1.88532 177 50 78 0.442761 -0.766255 -0.465635
-0.626911 0.81598 1.88532 143 34 22 0.595514 0.507789 -0.622506
-0.608821 0.770389 1.88532 177 49 79 0.507076 -0.694509 -0.510423
-0.628043 0.817256 1.88532 143 34 22 0.676068 0.398368 -0.619867
-0.660078 0.759968 1.88393 161 47 45 0.430666 -0.456668 -0.778448
-0.608821 0.772029 1.88332 177 49 78 0.556224 -0.620468 -0.552842
-0.657063 0.762983 1.88399 161 47 45 0.390898 -0.461678 -0.796274
-0.608821 0.778059 1.88275 169 40 66 0.617444 0.307916 -0.723844
-0.654047 0.762983 1.88508 161 47 45 0.265326 -0.45857 -0.848125
-0.608821 0.781074 1.88395 166 35 61 0.6135 0.343365 -0.711139
-0.611836 0.787104 1.8852 161 27 54 0.644373 0.513143 -0.566981
-0.614851 0.79012 1.88413 167 30 61 0.74148 0.165958 -0.650127
-0.632942 0.829316 1.88329 153 41 24 0.259471 -0.239835 -0.935497
-0.629926 0.829316 1.88353 153 41 26 0.080603 -0.516145 -0.8527
-0.614851 0.793135 1.88408 171 32 66 0.816863 0.055022 -0.574202
-0.626911 0.829316 1.88341 166 50 30 0.06037 -0.537712 -0.840965
-0.614851 0.79615 1.88457 171 35 67 0.830766 0.231023 -0.506415
-0.623896 0.829316 1.88384 170 54 32 0.220053 -0.447591 -0.86674
-0.629926 0.811226 1.88306 157 34 49 0.235475 0.210975 -0.948705
-0.654047 0.765998 1.88337 161 47 45 0.263686 -0.528932 -0.80666
-0.632942 0.814241 1.8826 158 31 52 0.106419 0.001075 -0.994321
-0.629926 0.814241 1.88287 156 36 47 0.285196 0.011016 -0.958406
-0.651032 0.765998 1.88408 165 56 37 0.063095 -0.525788 -0.848272
-0.629926 0.817256 1.88325 148 37 25 0.576224 0.330885 -0.747316
-0.648017 0.765998 1.88381 165 56 37 -0.111045 -0.520615 -0.84654
-0.645002 0.762983 1.88523 165 56 37 -0.001291 -0.40913 -0.912475
-0.617866 0.799165 1.88244 164 31 53 0.71629 0.622509 -0.315297
-0.641987 0.762983 1.88492 165 56 37 -0.125332 -0.311307 -0.942008
-0.620881 0.80218 1.88334 164 31 53 0.721569 0.642276 -0.258496
-0.645002 0.765998 1.88337 165 56 37 0.009534 -0.54616 -0.837627
-0.641987 0.765998 1.88396 165 56 37 0.081658 -0.357421 -0.930367
-0.623896 0.80821 1.88267 157 31 48 0.592698 0.2182 -0.775305
-0.641987 0.769014 1.88278 166 56 37 0.194278 -0.413388 -0.889588
-0.626911 0.811226 1.88332 152 30 42 0.187404 0.408222 -0.89344
-0.638972 0.762983 1.88437 169 54 35 0.069075 -0.249927 -0.965798
-0.623896 0.811226 1.88356 144 27 31 0.306649 0.443629 -0.842116
-0.638972 0.765998 1.88409 169 54 35 0.146097 -0.240862 -0.9595
-0.635957 0.765998 1.88441 168 55 36 0.070178 -0.444459 -0.893046
-0.626911 0.814241 1.8841 144 34 22 0.415679 0.217455 -0.883133
-0.638972 0.769014 1.88315 168 53 32 0.068409 -0.382285 -0.921509
-0.635957 0.769014 1.88328 164 58 43 -0.150203 -0.422 -0.894067
-0.629926 0.769014 1.88345 150 65 54 0.231911 -0.821671 -0.520648
-0.626911 0.769014 1.88426 153 62 51 0.113665 -0.858963 -0.499263
-0.623896 0.769014 1.88467 153 82 76 -0.006412 -0.924606 -0.380871
-0.620881 0.769014 1.88423 163 85 87 -0.097455 -0.877095 -0.470326
-0.617866 0.769014 1.88314 151 88 81 -0.085913 -0.91504 -0.394108
-0.614851 0.769014 1.88262 174 79 90 0.118828 -0.90449 -0.409607
-0.611836 0.769014 1.88469 176 75 89 0.410316 -0.733295 -0.542144
-0.641987 0.756891 1.88834 164 56 40 0.001335 -0.495132 -0.868817
-0.641562 0.756953 1.88834 164 56 40 0.122688 -0.595704 -0.793779
-0.606039 0.772029 1.88834 169 41 69 0.721447 -0.442819 -0.532378
-0.638972 0.75746 1.88834 164 56 40 0.205497 -0.625761 -0.752459
-0.605805 0.77283 1.88834 169 41 69 0.969948 -0.123309 -0.209753
-0.605805 0.775495 1.88834 169 41 69 0.935342 0.353743 0.001259
-0.606862 0.778059 1.88834 169 41 69 0.952679 0.245896 0.178711
-0.607537 0.781074 1.88834 161 30 55 0.922468 0.384905 0.03001
-0.608821 0.783744 1.88834 161 30 55 0.891183 0.432045 -0.138312
-0.609 0.784089 1.88834 161 30 55 0.838957 0.523426 -0.148918
-0.611836 0.788611 1.88834 164 29 57 0.804424 0.565067 -0.183306
-0.612753 0.79012 1.88834 164 29 57 0.91219 0.301154 -0.277876
-0.635957 0.759092 1.88834 164 56 40 0.360533 -0.585662 -0.725959
-0.610967 0.787104 1.88834 163 30 56 0.809362 0.532843 -0.247003
-0.634855 0.759968 1.88834 164 56 40 0.34778 -0.54189 -0.765117
-0.613839 0.793135 1.88834 168 31 61 0.90957 0.157507 -0.384545
