ply
format ascii 1.0
element vertex 711
property float x
property float y
property float z
property uchar red
property uchar green
property uchar blue
property float nx
property float ny
property float nz
end_header
-0.524397 -0.409901 1.89537 213 129 132 -0.172798 0.045844 -0.98389
-0.524397 -0.418947 1.89444 198 69 98 -0.226392 0.234624 -0.945356
-0.545503 -0.443068 1.89561 208 95 107 -0.641624 0.092078 -0.761472
-0.476155 -0.437038 1.89674 195 57 89 0.474576 0.704371 -0.527862
-0.524397 -0.406886 1.89548 213 129 132 -0.183842 0.14327 -0.972459
-0.524397 -0.415932 1.89535 206 74 105 -0.216598 0.129446 -0.967641
-0.545503 -0.440053 1.89629 208 95 107 -0.626945 0.251094 -0.73749
-0.521382 -0.406886 1.89483 220 125 134 -0.202718 0.153653 -0.967107
-0.530427 -0.412917 1.8948 210 80 108 -0.290654 0.198868 -0.935934
-0.545503 -0.437038 1.89724 207 83 105 -0.595098 0.214854 -0.7744
-0.527412 -0.412917 1.89556 214 85 113 0.032063 0.105034 -0.993952
-0.542488 -0.437038 1.89499 197 87 100 -0.627538 0.104345 -0.771563
-0.518367 -0.403871 1.89565 202 121 125 -0.028718 0.5183 -0.854716
-0.524397 -0.412917 1.89531 219 93 119 -0.149339 0.0285 -0.988375
-0.515352 -0.403871 1.89569 207 121 126 -0.026033 0.52476 -0.850852
-0.512336 -0.406886 1.89465 210 90 112 0.207814 0.315255 -0.925974
-0.509321 -0.406886 1.89506 214 87 113 0.011813 0.426589 -0.904368
-0.542488 -0.431007 1.89536 199 85 101 -0.662697 0.494925 -0.562034
-0.512336 -0.403871 1.89541 208 90 112 0.09409 0.459218 -0.883327
-0.509321 -0.403871 1.89637 210 90 112 0.054545 0.389798 -0.919284
-0.506306 -0.406886 1.89471 216 91 117 -0.109405 0.400228 -0.909861
-0.506306 -0.403871 1.89609 216 97 119 -0.1706 0.35107 -0.920677
-0.503291 -0.403871 1.89524 216 106 121 -0.038621 0.419505 -0.906931
-0.497261 -0.406886 1.89482 209 119 124 0.348077 0.508481 -0.787584
-0.488215 -0.467189 1.89543 170 110 100 0.332206 -0.193669 -0.92311
-0.500276 -0.403871 1.89576 211 123 127 0.191778 0.530033 -0.826006
-0.497261 -0.403871 1.89671 206 116 122 0.255015 0.496121 -0.829959
-0.488215 -0.464174 1.8946 191 125 114 0.292462 -0.286642 -0.912306
-0.506306 -0.400856 1.89701 215 113 126 -0.142675 0.347683 -0.926693
-0.503291 -0.400856 1.89682 212 123 129 0.055353 0.419871 -0.905894
-0.494246 -0.406886 1.89611 209 102 116 0.353116 0.419031 -0.836494
-0.491231 -0.406886 1.89735 206 97 111 0.42153 0.321981 -0.847727
-0.494246 -0.403871 1.89736 204 104 114 0.193684 0.400474 -0.895605
-0.545033 -0.427992 1.9004 208 90 109 -0.615746 0.286282 -0.734097
-0.4852 -0.414768 1.9004 206 83 105 0.622629 0.175067 -0.762683
-0.533442 -0.402911 1.9004 193 117 119 -0.605659 0.306846 -0.734181
-0.485543 -0.412917 1.9004 206 83 105 0.73833 0.009733 -0.674369
-0.476155 -0.463376 1.9004 183 124 110 -0.071684 -0.944931 -0.319322
-0.543812 -0.424977 1.9004 208 90 109 -0.768196 0.158469 -0.620292
-0.531787 -0.400856 1.9004 193 117 119 -0.418088 0.466893 -0.779239
-0.485217 -0.409901 1.9004 207 77 105 0.617118 0.145646 -0.773274
-0.47314 -0.463943 1.9004 183 124 110 -0.136272 -0.964285 -0.22712
-0.530427 -0.399977 1.9004 193 117 119 -0.301988 0.564031 -0.768552
-0.4852 -0.430228 1.9004 160 134 127 -0.132437 0.127577 -0.982947
-0.483963 -0.427992 1.9004 160 134 127 -0.312151 0.077058 -0.946902
-0.527412 -0.398518 1.9004 192 112 116 -0.205145 0.612349 -0.763508
-0.46711 -0.463575 1.9004 231 165 137 0.331609 -0.845369 -0.418792
-0.47314 -0.433839 1.9004 194 67 94 0.509049 0.414114 -0.754572
-0.543361 -0.421962 1.9004 209 90 108 -0.713389 0.182566 -0.676569
-0.475633 -0.431007 1.9004 194 67 94 0.479002 0.433227 -0.76346
-0.524472 -0.397841 1.9004 192 98 108 -0.162643 0.697692 -0.697692
-0.462704 -0.461159 1.9004 230 162 134 0.46794 -0.588698 -0.659141
-0.542488 -0.419538 1.9004 202 77 102 -0.588781 0.324233 -0.740412
-0.484798 -0.424977 1.9004 163 137 127 -0.145811 0.023737 -0.989028
-0.521382 -0.398059 1.9004 200 81 105 -0.023805 0.665131 -0.746347
-0.541997 -0.418947 1.9004 196 63 93 -0.409482 0.661471 -0.628315
-0.524326 -0.397841 1.9004 200 81 105 0.050013 0.684462 -0.727331
-0.47917 -0.425272 1.9004 160 133 123 0.292379 0.174329 -0.940279
-0.539473 -0.417512 1.9004 202 77 102 -0.350353 0.715372 -0.604563
-0.479388 -0.424977 1.9004 160 133 123 0.199626 0.243082 -0.949242
-0.51939 -0.397841 1.9004 200 85 105 -0.129637 0.642226 -0.755473
-0.536458 -0.416299 1.9004 199 66 96 -0.456952 0.667853 -0.58751
-0.536201 -0.415932 1.9004 204 78 103 -0.784072 0.221149 -0.579935
-0.524397 -0.397834 1.9004 197 81 102 0.00138 0.738126 -0.674661
-0.461079 -0.459957 1.9004 227 160 133 0.479871 -0.493155 -0.725618
-0.518367 -0.397552 1.9004 209 103 118 -0.24447 0.549669 -0.798811
-0.473001 -0.434022 1.9004 212 76 106 0.660054 0.358689 -0.660054
-0.515352 -0.396218 1.9004 209 103 118 -0.171681 0.45635 -0.873081
-0.459608 -0.458143 1.9004 226 161 134 0.587687 -0.088081 -0.80428
-0.512406 -0.394826 1.9004 210 104 121 -0.213425 0.401827 -0.890497
-0.512336 -0.394787 1.9004 208 114 125 -0.166232 0.420638 -0.891869
-0.461079 -0.451466 1.9004 216 136 125 0.736494 0.123493 -0.665076
-0.509321 -0.393604 1.9004 205 130 132 -0.087863 0.456052 -0.885605
-0.461636 -0.449098 1.9004 216 136 125 0.7125 0.460052 -0.529808
-0.460654 -0.455128 1.9004 224 156 133 0.572071 0.115585 -0.812019
-0.535504 -0.412917 1.9004 202 72 100 -0.794566 0.151132 -0.588068
-0.46098 -0.452113 1.9004 221 149 130 0.596463 0.070088 -0.799575
-0.464094 -0.446306 1.9004 213 125 120 0.676903 0.654068 -0.337636
-0.534994 -0.409901 1.9004 202 72 100 -0.75274 0.12968 -0.645419
-0.486764 -0.406886 1.9004 208 68 101 0.504603 0.31162 -0.805151
-0.464548 -0.446083 1.9004 213 125 120 0.551358 0.71362 -0.432146
-0.488215 -0.405115 1.9004 208 73 104 0.521116 0.448325 -0.726253
-0.534484 -0.406886 1.9004 211 82 108 -0.72787 0.143163 -0.670604
-0.489065 -0.403871 1.9004 208 73 104 0.557517 0.425169 -0.713026
-0.533797 -0.403871 1.9004 211 82 108 -0.721603 0.176188 -0.669513
-0.491231 -0.401101 1.9004 202 86 105 0.563615 0.443909 -0.696622
-0.491482 -0.400856 1.9004 202 86 105 0.378389 0.5213 -0.764898
-0.494246 -0.399109 1.9004 198 101 109 0.29216 0.582723 -0.758338
-0.48299 -0.467189 1.9004 169 111 102 0.883628 -0.403817 -0.236926
-0.497116 -0.397841 1.9004 198 101 109 0.284444 0.513885 -0.809329
-0.482185 -0.46571 1.9004 223 157 142 0.835989 -0.477487 -0.270422
-0.506306 -0.393467 1.9004 198 124 123 0.114963 0.539891 -0.833847
-0.48587 -0.424977 1.9004 160 135 129 0.337594 -0.144683 -0.930106
-0.503291 -0.394376 1.9004 192 119 118 0.179936 0.564001 -0.805932
-0.500276 -0.395794 1.9004 196 119 118 0.267672 0.593947 -0.758669
-0.547202 -0.455128 1.9004 212 112 116 -0.589567 -0.327896 -0.73817
-0.548518 -0.453724 1.9004 212 112 116 -0.568256 -0.534532 -0.625588
-0.502243 -0.394826 1.9004 196 119 118 0.232935 0.538373 -0.809874
-0.54986 -0.452113 1.9004 212 112 116 -0.638764 -0.369465 -0.67489
-0.497261 -0.397745 1.9004 196 117 117 0.268225 0.45215 -0.850656
-0.551533 -0.449124 1.9004 208 107 114 -0.643572 -0.352081 -0.679599
-0.551543 -0.449098 1.9004 208 107 114 -0.709796 -0.067944 -0.701123
-0.551737 -0.446083 1.9004 208 107 114 -0.696587 -0.038305 -0.716449
-0.551533 -0.44491 1.9004 207 83 105 -0.67438 0.123562 -0.727973
-0.551076 -0.443068 1.9004 208 95 107 -0.660752 0.133349 -0.738664
-0.550917 -0.440053 1.9004 208 95 107 -0.586836 0.177416 -0.79003
-0.549111 -0.437038 1.9004 207 83 105 -0.557406 0.319665 -0.766233
-0.548518 -0.43604 1.9004 207 83 105 -0.628826 0.303959 -0.715672
-0.547734 -0.434022 1.9004 207 83 105 -0.728654 0.223121 -0.647519
-0.546817 -0.431007 1.9004 205 83 105 -0.701551 0.276465 -0.656805
-0.545503 -0.428604 1.9004 205 83 105 -0.620472 0.361806 -0.695781
-0.542488 -0.427992 1.8983 208 90 109 -0.678901 0.287289 -0.675691
-0.533442 -0.403871 1.9001 193 117 119 -0.588628 0.211659 -0.780203
-0.488215 -0.421962 1.89833 170 101 105 0.482683 -0.229922 -0.845076
-0.482185 -0.464174 1.89762 231 164 138 0.734082 -0.601786 -0.314607
-0.530427 -0.403871 1.89809 193 117 119 -0.429456 0.350801 -0.832169
-0.4852 -0.421962 1.89978 172 142 133 0.387147 -0.117948 -0.914443
-0.4852 -0.418947 1.89949 172 142 133 0.537498 -0.048863 -0.841848
-0.542488 -0.424977 1.89866 208 90 109 -0.740648 0.159035 -0.6528
-0.4852 -0.415932 1.90003 182 75 93 0.64284 0.079811 -0.761831
-0.542488 -0.421962 1.89946 209 90 108 -0.632829 0.301117 -0.713341
-0.530427 -0.400856 1.89983 193 117 119 -0.338886 0.478895 -0.809825
-0.527412 -0.400856 1.89856 193 127 125 -0.259178 0.513701 -0.817886
-0.488215 -0.412917 1.89744 207 86 107 0.668325 0.07073 -0.740499
-0.539473 -0.418947 1.89918 196 63 93 -0.441316 0.514043 -0.735527
-0.488215 -0.409901 1.89825 207 86 107 0.552607 0.269219 -0.788763
-0.536458 -0.418947 1.89762 199 67 96 -0.340168 0.62988 -0.698239
-0.542488 -0.458143 1.89841 174 110 108 -0.537962 -0.069187 -0.840125
-0.524397 -0.400856 1.89801 195 99 111 -0.073597 0.627741 -0.774935
-0.545503 -0.455128 1.8993 212 112 116 -0.523289 -0.40518 -0.749665
-0.548518 -0.452113 1.89899 212 112 116 -0.535024 -0.435639 -0.723856
-0.521382 -0.400856 1.89777 191 84 103 -0.044095 0.669963 -0.741084
-0.533442 -0.412917 1.89741 202 72 100 -0.776939 0.204619 -0.595397
-0.551533 -0.449098 1.90039 208 107 114 -0.651786 -0.067625 -0.755382
-0.533442 -0.409901 1.89847 202 72 100 -0.721755 0.209542 -0.659668
-0.551533 -0.446083 1.9002 208 107 114 -0.665988 0.001379 -0.745961
-0.548518 -0.449098 1.89788 209 104 111 -0.600149 -0.239746 -0.763114
-0.482185 -0.427992 1.89959 160 134 127 -0.04738 0.146761 -0.988037
-0.47917 -0.427992 1.89987 152 115 113 0.123785 0.215667 -0.968589
-0.548518 -0.446083 1.89752 209 95 108 -0.648164 -0.004146 -0.761489
-0.548518 -0.443068 1.89783 208 95 107 -0.662362 0.159149 -0.732085
-0.548518 -0.440053 1.89873 208 95 107 -0.615612 0.222867 -0.755878
-0.464094 -0.458143 1.89764 231 165 136 0.549982 -0.063623 -0.832749
-0.548518 -0.437038 1.89991 207 83 105 -0.646 0.265066 -0.715838
-0.545503 -0.434022 1.89769 207 83 105 -0.748785 0.212388 -0.627863
-0.461079 -0.458143 1.89955 227 160 133 0.520006 -0.204667 -0.82928
-0.545503 -0.431007 1.89894 205 83 105 -0.684049 0.359249 -0.634837
-0.488215 -0.434022 1.89924 204 111 110 0.221914 0.600565 -0.768164
-0.464094 -0.455128 1.89802 220 139 123 0.581412 -0.034857 -0.812862
-0.47314 -0.434022 1.90029 194 67 94 0.441635 0.517722 -0.73275
-0.461079 -0.455128 1.90009 221 144 124 0.584522 0.049297 -0.809879
-0.524397 -0.397841 1.90039 192 98 108 0.001371 0.618487 -0.785794
-0.518367 -0.400856 1.89772 200 92 109 -0.064207 0.603545 -0.794739
-0.482185 -0.424977 1.89994 163 137 127 -0.062368 0.107727 -0.992222
-0.515352 -0.400856 1.89773 200 92 109 -0.020403 0.512788 -0.858273
-0.461079 -0.452113 1.90026 220 141 126 0.701211 -0.026699 -0.712453
-0.518367 -0.397841 1.90016 200 85 105 -0.187433 0.586681 -0.787829
-0.515352 -0.397841 1.89946 204 95 111 -0.080829 0.526096 -0.846575
-0.47314 -0.437038 1.89787 196 65 93 0.66016 0.352195 -0.663436
-0.512336 -0.400856 1.89758 211 100 118 -0.082399 0.470654 -0.878462
-0.509321 -0.400856 1.89745 211 100 118 -0.048647 0.372084 -0.926923
-0.512336 -0.397841 1.89932 209 100 116 -0.144252 0.427044 -0.89265
-0.533442 -0.406886 1.89929 211 82 108 -0.622421 0.205415 -0.755246
-0.509321 -0.397841 1.89859 212 103 120 -0.150956 0.379507 -0.912791
-0.512336 -0.394826 1.90038 210 104 121 -0.192331 0.351895 -0.916067
-0.509321 -0.394826 1.89983 210 110 123 -0.12138 0.400415 -0.908259
-0.488215 -0.424977 1.89927 163 135 131 0.5065 -0.193883 -0.840159
-0.506306 -0.397841 1.89816 211 118 125 -0.030648 0.430404 -0.902116
-0.503291 -0.397841 1.89814 212 121 128 0.105654 0.539851 -0.835104
-0.500276 -0.400856 1.89809 202 123 121 0.286237 0.386192 -0.876883
-0.497261 -0.400856 1.89834 199 113 116 0.155863 0.535873 -0.829787
-0.500276 -0.397841 1.89849 203 124 124 0.330222 0.401538 -0.854237
-0.497261 -0.397841 1.90034 196 115 117 0.342391 0.443373 -0.828365
-0.491231 -0.403871 1.89887 204 83 104 0.465158 0.413293 -0.782826
-0.488215 -0.406886 1.89954 208 79 106 0.536071 0.354682 -0.766047
-0.494246 -0.400856 1.89905 200 99 110 0.303734 0.495732 -0.813631
-0.506306 -0.394826 1.8996 203 128 128 0.033674 0.459309 -0.887638
-0.503291 -0.394826 1.90005 195 125 122 0.101238 0.500484 -0.859806
-0.491231 -0.491487 1.9004 175 117 103 0.59042 -0.184602 -0.785701
-0.490227 -0.488295 1.9004 175 117 103 0.647807 -0.202536 -0.734388
-0.488333 -0.482264 1.9004 175 117 103 0.7031 -0.223927 -0.674913
-0.497261 -0.488295 1.8954 175 117 103 0.532243 -0.236038 -0.813021
-0.491231 -0.488295 1.89955 175 117 103 0.581868 -0.235555 -0.778424
-0.491231 -0.482264 1.89759 175 117 103 0.581852 -0.288535 -0.760392
-0.540533 -0.415932 1.90341 201 65 98 -0.435018 0.638359 -0.635026
-0.539473 -0.415132 1.90341 201 65 98 -0.523246 0.383062 -0.761234
-0.551533 -0.45435 1.90341 209 107 113 -0.616736 -0.423902 -0.663282
-0.538395 -0.412917 1.90341 208 77 105 -0.655806 0.192884 -0.729873
-0.537842 -0.409901 1.90341 208 77 105 -0.707614 0.123646 -0.695697
-0.552991 -0.452113 1.90341 209 107 113 -0.672373 -0.394833 -0.626116
-0.456157 -0.458143 1.90341 219 146 127 0.633468 -0.209091 -0.744983
-0.45606 -0.455128 1.90341 219 146 127 0.596579 0.040708 -0.801521
-0.550626 -0.458143 1.90341 211 118 121 -0.549828 0.020567 -0.835025
-0.461079 -0.445771 1.90341 192 67 89 0.511236 0.675503 -0.531351
-0.550837 -0.455128 1.90341 211 118 121 -0.558837 -0.13418 -0.81835
-0.554428 -0.449098 1.90341 210 94 108 -0.669006 -0.336945 -0.662495
-0.517714 -0.391811 1.90341 209 97 116 -0.228259 0.41922 -0.878722
-0.515352 -0.390691 1.90341 209 97 116 -0.238973 0.47338 -0.847822
-0.554548 -0.448769 1.90341 207 83 103 -0.652025 -0.126824 -0.747516
-0.456434 -0.452113 1.90341 218 143 127 0.566711 0.147256 -0.81065
-0.55547 -0.446083 1.90341 207 83 103 -0.578041 -0.085048 -0.811564
-0.512336 -0.388936 1.90341 205 111 121 -0.262714 0.468584 -0.843451
-0.457297 -0.449098 1.90341 213 133 122 0.644133 0.25797 -0.7201
-0.511995 -0.388795 1.90341 202 104 116 -0.078032 0.534871 -0.841323
-0.458064 -0.448051 1.90341 199 90 100 0.510032 0.553797 -0.658161
-0.554548 -0.443558 1.90341 206 84 105 -0.632413 0.20565 -0.746835
-0.509321 -0.388471 1.90341 205 111 121 0.001357 0.563126 -0.82637
-0.554366 -0.443068 1.90341 206 89 105 -0.666477 0.186244 -0.721888
-0.553567 -0.440053 1.90341 206 80 104 -0.722599 0.153003 -0.674122
-0.460628 -0.446083 1.90341 199 90 100 0.461304 0.625695 -0.62905
-0.47314 -0.423752 1.90341 207 86 105 0.19948 0.360212 -0.911293
-0.552972 -0.437038 1.90341 210 78 106 -0.674606 0.149409 -0.7229
-0.47502 -0.421962 1.90341 207 86 105 0.314104 0.170197 -0.934009
-0.552247 -0.434022 1.90341 210 78 106 -0.57878 0.249393 -0.776413
-0.470125 -0.432368 1.90341 202 61 95 0.621531 0.387427 -0.680882
-0.4852 -0.404116 1.90341 203 66 97 0.485696 0.576449 -0.657119
-0.537334 -0.406886 1.90341 212 91 114 -0.73788 0.185621 -0.648905
-0.551533 -0.433365 1.90341 216 90 113 -0.501771 0.406974 -0.763281
-0.485456 -0.403871 1.90341 203 66 97 0.56034 0.503128 -0.657937
-0.470942 -0.431007 1.90341 202 61 95 0.621529 0.181725 -0.762022
-0.536546 -0.403871 1.90341 212 91 114 -0.754059 0.19197 -0.628126
-0.54983 -0.431007 1.90341 209 83 106 -0.592674 0.281242 -0.754745
-0.488088 -0.400856 1.90341 197 72 95 0.699571 0.600808 -0.386821
-0.471599 -0.427992 1.90341 217 77 110 0.392018 0.011644 -0.919884
-0.549005 -0.427992 1.90341 212 86 109 -0.555249 0.093743 -0.826384
-0.536458 -0.403453 1.90341 199 101 113 -0.751784 0.250595 -0.609938
-0.470125 -0.427707 1.90341 218 85 110 0.591232 -0.371772 -0.715702
-0.548682 -0.424977 1.90341 212 89 109 -0.497416 0.009385 -0.867461
-0.535608 -0.400856 1.90341 199 106 115 -0.67771 0.387498 -0.624944
-0.488215 -0.400675 1.90341 193 78 97 0.667648 0.519655 -0.533109
-0.469704 -0.424977 1.90341 215 85 110 0.787109 -0.207945 -0.580705
-0.548518 -0.424748 1.90341 212 89 109 -0.34783 0.291102 -0.89122
-0.533442 -0.397966 1.90341 199 101 113 -0.639475 0.481704 -0.599193
-0.470125 -0.424185 1.90341 213 81 107 0.424506 0.466794 -0.775821
-0.546638 -0.421962 1.90341 207 84 103 -0.530554 0.310685 -0.788662
-0.533306 -0.397841 1.90341 193 110 115 -0.355692 0.640902 -0.680241
-0.530427 -0.396476 1.90341 190 101 110 -0.237224 0.736807 -0.63312
-0.475583 -0.418947 1.90341 197 80 100 0.393476 0.094599 -0.914455
-0.527412 -0.395872 1.90341 191 76 96 -0.168962 0.738257 -0.653015
-0.476155 -0.41721 1.90341 204 86 105 0.426343 0.228879 -0.875126
-0.476718 -0.415932 1.90341 204 86 105 0.438716 0.378093 -0.815214
-0.524397 -0.395077 1.90341 194 73 98 -0.064925 0.717063 -0.693978
-0.490609 -0.397841 1.90341 193 78 97 0.619195 0.541585 -0.56858
-0.521382 -0.394856 1.90341 203 78 103 -0.055813 0.679775 -0.731294
-0.497261 -0.393189 1.90341 192 102 109 0.49024 0.722896 -0.486916
-0.47917 -0.413229 1.90341 204 75 99 0.444851 0.399884 -0.801374
-0.47917 -0.467556 1.90341 196 132 120 0.443099 -0.388711 -0.807816
-0.499372 -0.391811 1.90341 192 102 109 0.461552 0.694827 -0.55153
-0.478884 -0.467189 1.90341 197 138 121 0.377134 -0.506622 -0.775309
-0.506306 -0.389057 1.90341 193 116 116 0.235408 0.578388 -0.781057
-0.50718 -0.388795 1.90341 193 116 116 0.103029 0.567388 -0.81698
-0.479549 -0.412917 1.90341 204 75 99 0.457354 0.204096 -0.865547
-0.47314 -0.465301 1.90341 197 138 121 0.001354 -0.83804 -0.545606
-0.503291 -0.390324 1.90341 195 105 113 0.221549 0.590282 -0.776198
-0.500276 -0.391266 1.90341 193 85 103 0.447973 0.68778 -0.571208
-0.494246 -0.395938 1.90341 192 102 109 0.447781 0.738591 -0.50396
-0.495408 -0.394826 1.90341 192 102 109 0.596123 0.726068 -0.34273
-0.466364 -0.464174 1.90341 231 165 137 0.250303 -0.915847 -0.313963
-0.491231 -0.397331 1.90341 191 92 103 0.425344 0.770834 -0.474234
-0.480743 -0.409901 1.90341 201 78 100 0.708679 0.411331 -0.57322
-0.481878 -0.406886 1.90341 201 78 100 0.889931 0.392399 -0.232478
-0.482185 -0.406627 1.90341 201 73 99 0.622458 0.688152 -0.372818
-0.458064 -0.461483 1.90341 234 168 136 0.342914 -0.73621 -0.583442
-0.457741 -0.461159 1.90341 230 167 135 0.556036 -0.31888 -0.767554
-0.521296 -0.394826 1.90341 204 85 105 -0.277043 0.518087 -0.809217
-0.518367 -0.39228 1.90341 207 88 110 -0.339231 0.388799 -0.856597
-0.539473 -0.415932 1.90273 201 65 98 -0.342372 0.744782 -0.572784
-0.458064 -0.458143 1.90163 222 154 129 0.583111 -0.204627 -0.786199
-0.551533 -0.452113 1.90206 209 107 113 -0.625446 -0.413093 -0.661945
-0.458064 -0.455128 1.90215 222 154 129 0.546654 0.124573 -0.828041
-0.536458 -0.415932 1.90099 208 77 105 -0.636208 0.301192 -0.710298
-0.515352 -0.394826 1.90125 207 103 116 -0.269814 0.470248 -0.840278
-0.548518 -0.458143 1.90201 211 118 121 -0.531506 0.246383 -0.81043
-0.536458 -0.412917 1.90157 208 77 105 -0.718125 0.120431 -0.685415
-0.458064 -0.452113 1.9025 219 145 127 0.548669 0.114973 -0.828097
-0.548518 -0.455128 1.90171 211 118 121 -0.590874 -0.274052 -0.758791
-0.536458 -0.409901 1.902 208 77 105 -0.725571 0.117219 -0.67809
-0.461079 -0.449098 1.90105 211 127 119 0.531613 0.320884 -0.78385
-0.458064 -0.449098 1.9029 211 127 119 0.512279 0.174742 -0.840854
-0.554548 -0.446083 1.90302 207 83 103 -0.636886 0.020904 -0.770674
-0.461079 -0.446083 1.90311 199 90 100 0.523309 0.553597 -0.647826
-0.551533 -0.443068 1.90082 206 89 105 -0.694483 0.120456 -0.709354
-0.515352 -0.391811 1.9028 207 103 116 -0.269721 0.431249 -0.860973
-0.536458 -0.406886 1.90259 212 91 114 -0.71998 0.14943 -0.677717
-0.536458 -0.403871 1.9033 212 91 114 -0.729201 0.159181 -0.665528
-0.533442 -0.400856 1.90134 199 106 115 -0.503423 0.473517 -0.722736
-0.47917 -0.467189 1.90323 196 132 120 0.407611 -0.518926 -0.751378
-0.530427 -0.397841 1.90198 193 110 115 -0.321291 0.605448 -0.728152
-0.551533 -0.440053 1.90092 206 80 104 -0.693792 0.193149 -0.693792
-0.527412 -0.397841 1.90108 192 105 113 -0.166044 0.735772 -0.656558
-0.512336 -0.391811 1.90182 207 103 116 -0.200963 0.459983 -0.864887
-0.47314 -0.464174 1.90113 197 138 121 -0.071485 -0.915814 -0.395189
-0.551533 -0.437038 1.90212 210 78 106 -0.603543 0.25686 -0.754823
-0.509321 -0.391811 1.9013 207 103 116 -0.028759 0.516295 -0.855928
-0.521382 -0.397841 1.90064 202 118 123 -0.02104 0.70273 -0.711146
-0.551533 -0.434022 1.90297 210 78 106 -0.532037 0.257437 -0.806637
-0.509321 -0.388795 1.90321 202 104 116 -0.05422 0.515782 -0.855002
-0.548518 -0.434022 1.90124 203 79 102 -0.579564 0.284225 -0.763755
-0.518367 -0.394826 1.90231 204 85 105 -0.278282 0.480387 -0.831738
-0.4852 -0.409901 1.90041 205 73 100 0.550167 0.075346 -0.831648
-0.548518 -0.431007 1.90215 209 83 106 -0.666684 0.251788 -0.701523
-0.4852 -0.406886 1.90127 205 73 100 0.501807 0.384881 -0.774633
-0.548518 -0.427992 1.90317 212 86 109 -0.6118 0.1886 -0.7682
-0.488215 -0.403871 1.90107 203 69 98 0.568976 0.458852 -0.682438
-0.545503 -0.427992 1.90083 212 86 109 -0.531839 0.391107 -0.751121
-0.548518 -0.424977 1.90337 212 89 109 -0.349019 0.339875 -0.87331
-0.491231 -0.400856 1.90057 196 91 105 0.577089 0.492965 -0.651118
-0.545503 -0.424977 1.90324 214 91 112 -0.510996 0.262487 -0.818525
-0.545503 -0.421962 1.90273 207 84 103 -0.735472 0.05284 -0.675492
-0.494246 -0.397841 1.90152 194 99 107 0.364537 0.593395 -0.717632
-0.491231 -0.397841 1.90283 196 86 103 0.382709 0.589667 -0.711215
-0.488215 -0.400856 1.90326 197 66 94 0.57576 0.478401 -0.663048
-0.458064 -0.461159 1.90314 234 168 136 0.513461 -0.396098 -0.761226
-0.506306 -0.391811 1.90144 194 125 123 0.127457 0.546452 -0.827735
-0.503291 -0.391811 1.90227 190 109 111 0.193741 0.575121 -0.794796
-0.500276 -0.394826 1.90101 192 113 114 0.281601 0.523873 -0.803901
-0.497261 -0.394826 1.90185 193 107 112 0.376074 0.538877 -0.753777
-0.500276 -0.391811 1.90293 192 108 111 0.237193 0.55345 -0.798394
-0.482185 -0.409901 1.9024 203 75 100 0.51075 0.08963 -0.855044
-0.482185 -0.406886 1.90312 203 75 100 0.534528 0.24015 -0.810313
-0.464094 -0.446083 1.90074 200 95 103 0.513492 0.577468 -0.63471
-0.4852 -0.424977 1.90061 145 129 118 -0.108656 -0.069769 -0.991628
-0.4852 -0.412917 1.90073 191 93 107 0.535459 -0.006778 -0.844534
-0.47314 -0.431007 1.90186 202 71 99 0.493662 0.310707 -0.812255
-0.47314 -0.427992 1.90259 205 76 101 0.356775 0.199163 -0.912713
-0.47917 -0.424977 1.90046 164 111 109 0.489862 0.244163 -0.836911
-0.482185 -0.421962 1.90057 164 111 109 0.253843 0.204446 -0.945392
-0.47917 -0.421962 1.90136 164 116 112 0.385329 0.231788 -0.893194
-0.476155 -0.421962 1.90302 165 88 93 0.41366 0.153155 -0.897457
-0.470125 -0.424977 1.90316 218 85 110 0.083633 -0.031498 -0.995999
-0.482185 -0.412917 1.90248 204 76 100 0.402442 0.136971 -0.905141
-0.461079 -0.443442 1.90643 193 62 89 0.47541 0.705609 -0.525453
-0.472521 -0.415932 1.90643 200 70 97 0.513425 0.500045 -0.697388
-0.461664 -0.443068 1.90643 193 62 89 0.609391 0.545245 -0.57563
-0.521382 -0.388287 1.90643 209 97 116 -0.246691 0.598658 -0.762071
-0.46386 -0.440053 1.90643 198 60 90 0.680882 0.387427 -0.621531
-0.47314 -0.415558 1.90643 200 70 97 0.53766 0.534289 -0.652271
-0.464094 -0.438779 1.90643 200 61 94 0.689788 0.104871 -0.716376
-0.452034 -0.455756 1.90643 219 139 124 0.570985 0.054984 -0.819117
-0.464345 -0.437038 1.90643 200 61 94 0.642737 0.247936 -0.724856
-0.518367 -0.38718 1.90643 209 97 116 -0.222963 0.618994 -0.753083
-0.45238 -0.455128 1.90643 219 139 124 0.716814 0.165887 -0.677244
-0.515352 -0.386039 1.90643 209 97 116 -0.200439 0.573776 -0.794106
-0.465795 -0.434022 1.90643 201 55 94 0.604518 0.343809 -0.718578
-0.46711 -0.432333 1.90643 211 69 104 0.577394 0.393154 -0.715574
-0.514946 -0.38578 1.90643 205 119 126 -0.278715 0.533809 -0.798352
-0.468049 -0.431007 1.90643 211 69 104 0.667801 0.237266 -0.705512
-0.468485 -0.427992 1.90643 217 76 110 0.719814 -0.117248 -0.684194
-0.45186 -0.458143 1.90643 218 136 124 0.683585 -0.123611 -0.719328
-0.512336 -0.384494 1.90643 200 115 122 -0.101249 0.629504 -0.770372
-0.556357 -0.458143 1.90643 205 112 116 -0.435908 0.413389 -0.799433
-0.453104 -0.452113 1.90643 218 136 125 0.777618 0.221955 -0.588258
-0.467347 -0.424977 1.90643 220 80 112 0.725873 0.052973 -0.685786
-0.554548 -0.456195 1.90643 205 112 116 -0.548304 0.243863 -0.799933
-0.455049 -0.447847 1.90643 196 79 95 0.644775 0.530298 -0.5505
-0.467953 -0.421962 1.90643 207 77 103 0.62914 0.336517 -0.70067
-0.554307 -0.455128 1.90643 201 118 119 -0.686096 0.00138 -0.72751
-0.457226 -0.446083 1.90643 196 79 95 0.481878 0.612842 -0.626274
-0.554548 -0.453582 1.90643 205 112 116 -0.616944 -0.34347 -0.708102
-0.556018 -0.452113 1.90643 205 112 116 -0.507027 -0.424984 -0.749875
-0.509321 -0.3844 1.90643 200 115 122 0.076857 0.723615 -0.685911
-0.475796 -0.412917 1.90643 201 68 96 0.575355 0.538235 -0.615849
-0.454094 -0.449098 1.90643 214 129 121 0.784651 0.34499 -0.515078
-0.476155 -0.412323 1.90643 201 69 96 0.593092 0.525504 -0.60999
-0.47804 -0.409901 1.90643 201 69 96 0.649033 0.524283 -0.551256
-0.556195 -0.440053 1.90643 206 84 105 -0.732056 0.209825 -0.648126
-0.544094 -0.415932 1.90643 201 65 98 -0.582967 0.572829 -0.576208
-0.4852 -0.402685 1.90643 193 69 93 0.690073 0.556403 -0.462834
-0.542488 -0.414687 1.90643 201 65 98 -0.561767 0.544897 -0.622499
-0.486441 -0.400856 1.90643 193 69 93 0.738612 0.53792 -0.406319
-0.458064 -0.445517 1.90643 195 62 90 0.395321 0.686436 -0.610349
-0.488215 -0.398001 1.90643 194 72 95 0.764868 0.497409 -0.409343
-0.469932 -0.418947 1.90643 202 68 97 0.691103 0.451299 -0.56454
-0.555858 -0.437038 1.90643 210 78 106 -0.752966 0.032371 -0.657262
-0.470125 -0.418639 1.90643 202 68 97 0.593182 0.456165 -0.663361
-0.541173 -0.412917 1.90643 201 65 98 -0.692377 0.319434 -0.646975
-0.555917 -0.434022 1.90643 212 80 109 -0.738752 0.149563 -0.657172
-0.488394 -0.397841 1.90643 194 72 95 0.597349 0.680546 -0.424301
-0.540653 -0.409901 1.90643 209 92 113 -0.740984 0.195644 -0.642391
-0.554619 -0.431007 1.90643 218 88 115 -0.679907 0.311692 -0.663758
-0.497261 -0.392634 1.90643 192 84 100 0.545817 0.776308 -0.315325
-0.539875 -0.406886 1.90643 209 92 113 -0.774066 0.218724 -0.594123
-0.498266 -0.391811 1.90643 192 84 100 0.651389 0.690181 -0.315188
-0.554548 -0.43092 1.90643 216 90 113 -0.590193 0.253389 -0.766464
-0.503291 -0.386831 1.90643 196 84 104 0.524105 0.652182 -0.547698
-0.504943 -0.38578 1.90643 196 84 104 0.340543 0.656645 -0.672939
-0.500276 -0.389299 1.90643 193 85 103 0.712107 0.590407 -0.3799
-0.553157 -0.427992 1.90643 216 91 113 -0.603277 0.091582 -0.792256
-0.50076 -0.388795 1.90643 193 85 103 0.469564 0.693485 -0.546432
-0.491231 -0.395961 1.90643 189 87 100 0.454593 0.791089 -0.409296
-0.476155 -0.46971 1.90643 170 114 103 0.257836 -0.637471 -0.726052
-0.493731 -0.394826 1.90643 189 87 100 0.374022 0.778808 -0.503553
-0.47314 -0.468382 1.90643 179 119 109 0.279268 -0.646306 -0.710139
-0.494246 -0.394574 1.90643 190 88 102 0.447763 0.756113 -0.477286
-0.464094 -0.464811 1.90643 231 165 137 0.251533 -0.852163 -0.458857
-0.461079 -0.464339 1.90643 231 165 137 0.150915 -0.972703 -0.176279
-0.47917 -0.408765 1.90643 200 73 98 0.547929 0.697819 -0.461327
-0.481316 -0.406886 1.90643 200 73 98 0.709286 0.624886 -0.326239
-0.459955 -0.464174 1.90643 229 163 134 0.1468 -0.899329 -0.411895
-0.482185 -0.406151 1.90643 201 70 97 0.711758 0.610776 -0.346921
-0.484136 -0.403871 1.90643 201 70 97 0.686009 0.606663 -0.401687
-0.553236 -0.424977 1.90643 210 93 110 -0.783201 0.379489 -0.492528
-0.506306 -0.385139 1.90643 198 89 108 0.278913 0.725174 -0.629547
-0.551533 -0.422929 1.90643 201 81 100 -0.591837 0.628932 -0.504157
-0.550032 -0.421962 1.90643 212 89 109 -0.5628 0.623643 -0.542518
-0.539473 -0.405574 1.90643 209 92 113 -0.779885 0.29067 -0.554338
-0.538889 -0.403871 1.90643 211 99 116 -0.772667 0.256507 -0.580681
-0.537705 -0.400856 1.90643 199 97 111 -0.785947 0.34556 -0.512714
-0.536458 -0.39866 1.90643 199 101 113 -0.74374 0.440307 -0.502972
-0.535899 -0.397841 1.90643 199 101 113 -0.65723 0.542929 -0.522758
-0.533442 -0.395212 1.90643 192 94 108 -0.565386 0.63627 -0.524881
-0.532503 -0.394826 1.90643 196 85 103 -0.304046 0.778423 -0.549194
-0.530427 -0.394115 1.90643 192 87 103 -0.423696 0.73034 -0.535803
-0.527412 -0.392345 1.90643 192 87 103 -0.307443 0.603619 -0.73561
-0.526412 -0.391811 1.90643 197 71 98 -0.355916 0.554189 -0.752462
-0.524397 -0.390653 1.90643 204 87 108 -0.295091 0.408234 -0.863867
-0.522245 -0.388795 1.90643 204 87 108 -0.333733 0.46343 -0.820887
-0.452991 -0.461159 1.90643 224 154 130 0.51071 -0.425318 -0.747181
-0.452034 -0.459015 1.90643 224 157 131 0.622366 -0.223054 -0.750271
-0.47314 -0.415932 1.90607 200 70 97 0.519578 0.382761 -0.763893
-0.521382 -0.391811 1.90494 209 98 116 -0.276078 0.425557 -0.86179
-0.455049 -0.458143 1.90439 219 145 127 0.568562 -0.106151 -0.815763
-0.518367 -0.391811 1.90359 209 98 116 -0.323853 0.385247 -0.86412
-0.521382 -0.388795 1.90609 209 98 116 -0.328415 0.393173 -0.858813
-0.455049 -0.455128 1.90417 219 145 127 0.615537 0.020842 -0.787832
-0.464094 -0.443068 1.90386 193 62 88 0.596322 0.572672 -0.562536
-0.455049 -0.452113 1.90438 219 145 127 0.648985 0.162626 -0.743217
-0.464094 -0.440053 1.90609 193 62 88 0.718095 0.389447 -0.576776
-0.452034 -0.458143 1.90628 219 139 124 0.538096 0.001349 -0.842882
-0.518367 -0.388795 1.90512 209 98 116 -0.21511 0.51718 -0.828404
-0.46711 -0.434022 1.90542 200 57 94 0.621206 0.358955 -0.696602
-0.515352 -0.388795 1.90454 209 95 115 -0.23934 0.529637 -0.813757
-0.455049 -0.449098 1.9056 209 120 116 0.630919 0.322758 -0.705527
-0.458064 -0.446083 1.90565 193 69 91 0.487967 0.67913 -0.548334
-0.512336 -0.388795 1.90349 208 98 117 -0.27415 0.518534 -0.809916
-0.47314 -0.421962 1.90398 172 84 93 0.364003 0.249055 -0.897482
-0.554548 -0.458143 1.90537 205 112 116 -0.412231 0.377483 -0.8292
-0.512336 -0.38578 1.90551 205 119 126 -0.196638 0.553331 -0.809418
-0.470125 -0.431007 1.90424 213 71 105 0.71121 0.175891 -0.68062
-0.551533 -0.458143 1.90394 201 118 119 -0.534565 0.162305 -0.829395
-0.509321 -0.38578 1.90527 205 123 127 0.032097 0.595888 -0.802426
-0.551533 -0.455128 1.90377 201 118 119 -0.644337 -0.064577 -0.762011
-0.539473 -0.409901 1.90514 209 92 113 -0.733618 0.143108 -0.664323
-0.539473 -0.406886 1.9059 209 92 113 -0.750252 0.188714 -0.633648
-0.554548 -0.452113 1.90519 205 112 116 -0.601337 -0.428099 -0.67463
-0.4852 -0.403871 1.90392 203 69 98 0.692377 0.646975 -0.319434
-0.536458 -0.400856 1.90448 199 97 111 -0.76024 0.361479 -0.539786
-0.554548 -0.449098 1.90352 211 90 106 -0.6046 -0.362105 -0.709463
-0.533442 -0.397841 1.90351 199 101 113 -0.548409 0.61928 -0.561908
-0.506306 -0.388795 1.90359 195 105 113 0.263164 0.584633 -0.76743
-0.470125 -0.427992 1.90472 219 77 110 0.761551 -0.120245 -0.636853
-0.554548 -0.443068 1.90361 206 84 105 -0.680843 0.261863 -0.684018
-0.503291 -0.388795 1.90464 194 94 106 0.329499 0.641143 -0.693084
-0.506306 -0.38578 1.90583 196 100 111 0.197983 0.600087 -0.775048
-0.494246 -0.394826 1.90587 190 93 104 0.497247 0.805445 -0.322496
-0.530427 -0.394826 1.90558 196 85 103 -0.262262 0.707313 -0.65645
-0.47917 -0.409901 1.90507 200 73 98 0.614274 0.431157 -0.660886
-0.554548 -0.440053 1.90449 206 84 105 -0.735004 0.142792 -0.662857
-0.542488 -0.415932 1.90491 201 65 98 -0.560105 0.604101 -0.566873
-0.470125 -0.421962 1.90505 210 81 104 0.44746 0.371025 -0.813708
-0.554548 -0.437038 1.90495 210 78 106 -0.701734 0.083158 -0.707569
-0.527412 -0.394826 1.90455 192 87 103 -0.230426 0.641117 -0.732033
-0.47314 -0.418947 1.9045 208 80 103 0.451705 0.261836 -0.85288
-0.539473 -0.412917 1.90454 201 65 98 -0.655158 0.326766 -0.681169
-0.554548 -0.434022 1.90506 212 80 109 -0.597165 0.229199 -0.768675
-0.476155 -0.415932 1.90377 197 80 100 0.547226 0.428192 -0.719164
-0.524397 -0.394826 1.90364 192 70 93 -0.183437 0.568504 -0.801969
-0.521382 -0.394826 1.90343 197 74 99 -0.064996 0.468803 -0.880908
-0.47917 -0.412917 1.90356 204 75 99 0.543171 0.373532 -0.751957
-0.524397 -0.391811 1.90584 197 71 98 -0.237414 0.54776 -0.802243
-0.554548 -0.431007 1.90639 218 88 115 -0.521646 0.341879 -0.781667
-0.476155 -0.412917 1.90585 201 69 96 0.569802 0.466201 -0.676744
-0.551533 -0.431007 1.90481 216 90 113 -0.53205 0.271518 -0.801998
-0.551533 -0.427992 1.90509 216 91 113 -0.558088 0.017826 -0.82959
-0.470125 -0.418947 1.90628 202 68 97 0.445613 0.28217 -0.849594
-0.551533 -0.424977 1.90487 210 93 110 -0.554788 0.26875 -0.78739
-0.476155 -0.467189 1.90455 170 114 103 0.327684 -0.516302 -0.791237
-0.47314 -0.467189 1.90526 179 119 109 0.175851 -0.674351 -0.717166
-0.548518 -0.421962 1.90487 212 89 109 -0.52404 0.497252 -0.691464
-0.464094 -0.464174 1.90481 231 165 137 0.136728 -0.940851 -0.310007
-0.461079 -0.464174 1.906 231 165 137 0.182796 -0.902463 -0.39006
-0.483497 -0.488295 1.90643 175 117 103 0.646472 -0.091936 -0.757379
-0.4852 -0.488295 1.90487 175 117 103 0.670604 -0.143163 -0.72787
-0.461079 -0.432507 1.90944 220 73 109 0.44269 0.338713 -0.83024
-0.523968 -0.38578 1.90944 200 80 105 -0.299022 0.590048 -0.749953
-0.503291 -0.384629 1.90944 194 71 96 0.495389 0.70889 -0.502061
-0.521382 -0.384601 1.90944 200 80 105 -0.275242 0.625261 -0.730267
-0.506005 -0.382765 1.90944 194 71 96 0.513492 0.63471 -0.577468
-0.460116 -0.434022 1.90944 217 76 109 0.608361 0.148711 -0.779604
-0.518367 -0.383196 1.90944 199 97 112 -0.251842 0.567818 -0.783683
-0.517747 -0.382765 1.90944 199 112 120 -0.328978 0.544017 -0.771894
-0.543116 -0.409901 1.90944 210 82 110 -0.803608 0.30155 -0.513109
-0.515352 -0.381307 1.90944 199 92 110 -0.248199 0.554155 -0.79455
-0.542488 -0.408134 1.90944 210 82 110 -0.811764 0.246789 -0.529277
-0.512336 -0.380625 1.90944 195 110 118 0.015177 0.58638 -0.809894
-0.509321 -0.381459 1.90944 198 98 112 0.214866 0.582766 -0.78372
-0.463242 -0.431007 1.90944 220 73 109 0.301591 0.184846 -0.935348
-0.4852 -0.399044 1.90944 189 67 89 0.551407 0.548034 -0.628975
-0.462578 -0.427992 1.90944 220 74 110 0.39589 0.252473 -0.882909
-0.542009 -0.406886 1.90944 212 80 110 -0.786402 0.320622 -0.52799
-0.486804 -0.397841 1.90944 189 67 89 0.65083 0.556653 -0.516292
-0.540645 -0.403871 1.90944 210 82 110 -0.760062 0.340495 -0.553506
-0.506306 -0.382514 1.90944 195 72 97 0.276127 0.636848 -0.719846
-0.464094 -0.426361 1.90944 217 86 112 0.596966 0.148119 -0.788474
-0.539526 -0.400856 1.90944 194 81 102 -0.806019 0.301271 -0.50948
-0.497261 -0.390574 1.90944 191 72 97 0.404053 0.559078 -0.723998
-0.539473 -0.400729 1.90944 194 81 102 -0.781743 0.393299 -0.483936
-0.464482 -0.424977 1.90944 217 86 112 0.720794 0.123863 -0.681993
-0.538014 -0.397841 1.90944 196 91 107 -0.72949 0.507831 -0.458206
-0.499148 -0.388795 1.90944 191 72 97 0.63807 0.570727 -0.516853
-0.464875 -0.421962 1.90944 207 78 103 0.653101 0.308006 -0.691803
-0.536458 -0.396084 1.90944 190 83 102 -0.62787 0.647856 -0.431349
-0.500276 -0.387319 1.90944 193 69 95 0.605946 0.609322 -0.511425
-0.534847 -0.394826 1.90944 190 83 102 -0.532908 0.754545 -0.382977
-0.47314 -0.411777 1.90944 199 74 97 0.513818 0.557619 -0.65196
-0.494246 -0.392487 1.90944 190 74 95 0.326146 0.712329 -0.621463
-0.533442 -0.393895 1.90944 191 82 102 -0.467974 0.774521 -0.425579
-0.495588 -0.391811 1.90944 190 74 95 0.416751 0.659164 -0.625957
-0.475394 -0.409901 1.90944 199 74 97 0.510984 0.527737 -0.67852
-0.491231 -0.393674 1.90944 186 67 88 0.21896 0.600976 -0.76869
-0.530483 -0.391811 1.90944 192 73 97 -0.568265 0.704118 -0.425784
-0.561006 -0.458143 1.90944 197 102 108 -0.541807 0.57894 -0.609322
-0.46711 -0.419371 1.90944 201 69 97 0.558798 0.498387 -0.662838
-0.530427 -0.391761 1.90944 199 74 101 -0.587773 0.658105 -0.470553
-0.46754 -0.418947 1.90944 201 69 97 0.673635 0.466363 -0.573342
-0.469611 -0.415932 1.90944 201 69 97 0.676706 0.449467 -0.583137
-0.560579 -0.457691 1.90944 197 102 108 -0.525924 0.364101 -0.768658
-0.544307 -0.412917 1.90944 194 58 92 -0.766312 0.413384 -0.491812
-0.527412 -0.389062 1.90944 200 74 101 -0.532117 0.626715 -0.56928
-0.47917 -0.407219 1.90944 193 68 92 0.415076 0.746481 -0.520076
-0.558794 -0.455128 1.90944 177 101 102 -0.527085 0.034405 -0.849116
-0.527138 -0.388795 1.90944 205 81 109 -0.512633 0.536163 -0.670624
-0.479733 -0.406886 1.90944 193 68 92 0.638417 0.557562 -0.530611
-0.470125 -0.415071 1.90944 201 79 100 0.658105 0.470553 -0.587773
-0.560579 -0.452188 1.90944 197 102 108 -0.489699 -0.303897 -0.817215
-0.560648 -0.452113 1.90944 197 102 108 -0.649308 -0.336859 -0.681854
-0.481694 -0.403871 1.90944 195 69 94 0.578416 0.37851 -0.72261
-0.471874 -0.412917 1.90944 201 79 100 0.548352 0.534854 -0.642838
-0.562464 -0.449098 1.90944 208 86 104 -0.691766 -0.196542 -0.694861
-0.524397 -0.386054 1.90944 203 88 109 -0.533115 0.536479 -0.654201
-0.562708 -0.446083 1.90944 206 78 99 -0.655998 0.159076 -0.737809
-0.449222 -0.458143 1.90944 219 134 123 0.707386 -0.182601 -0.682834
-0.560698 -0.443068 1.90944 201 65 93 -0.579597 0.32451 -0.747503
-0.560579 -0.442958 1.90944 204 67 96 -0.611502 0.402696 -0.681103
-0.558661 -0.440053 1.90944 204 67 96 -0.637021 0.29043 -0.714041
-0.558543 -0.437038 1.90944 212 77 108 -0.689258 0.070804 -0.721048
-0.558305 -0.434022 1.90944 213 79 109 -0.722699 0.117235 -0.681148
-0.557564 -0.4311 1.90944 210 84 107 -0.71776 0.226743 -0.658337
-0.557529 -0.431007 1.90944 212 90 109 -0.681169 0.326766 -0.655158
-0.556073 -0.427992 1.90944 212 90 109 -0.77256 0.408237 -0.486306
-0.46711 -0.468235 1.90944 227 166 144 0.292345 -0.602262 -0.742843
-0.449019 -0.457986 1.90944 219 134 123 0.403214 -0.319791 -0.85741
-0.554548 -0.425288 1.90944 195 75 95 -0.842901 0.361243 -0.398775
-0.464094 -0.46735 1.90944 222 161 137 0.398682 -0.600504 -0.693144
-0.554361 -0.424977 1.90944 195 75 95 -0.749175 0.617245 -0.240302
-0.452034 -0.451222 1.90944 204 100 106 0.355916 0.56719 -0.742711
-0.463963 -0.467189 1.90944 179 119 111 0.531753 -0.636415 -0.558762
-0.452813 -0.449098 1.90944 204 100 106 0.791388 0.28907 -0.538649
-0.461079 -0.464793 1.90944 222 161 137 0.252421 -0.845994 -0.469657
-0.449019 -0.451799 1.90944 211 114 115 0.169383 0.657695 -0.733994
-0.453193 -0.446083 1.90944 194 65 90 0.554339 0.262251 -0.789894
-0.458064 -0.465077 1.90944 227 159 134 0.030217 -0.915709 -0.400705
-0.455049 -0.46509 1.90944 227 159 134 0.120468 -0.951829 -0.281974
-0.446796 -0.455128 1.90944 219 132 123 0.452982 -0.017269 -0.891352
-0.452034 -0.464491 1.90944 227 159 134 0.2379 -0.924532 -0.297731
-0.448573 -0.452113 1.90944 219 128 122 0.484566 0.477951 -0.732638
-0.451658 -0.464174 1.90944 227 159 134 0.586086 -0.592842 -0.552306
-0.449834 -0.461159 1.90944 233 164 134 0.656932 -0.319545 -0.682885
-0.455049 -0.443789 1.90944 199 56 90 0.419936 0.423154 -0.802866
-0.456673 -0.443068 1.90944 199 56 90 0.299174 0.484003 -0.822336
-0.458064 -0.442277 1.90944 199 56 90 0.343015 0.424461 -0.837958
-0.460975 -0.440053 1.90944 199 56 90 0.314922 0.300137 -0.900412
-0.459854 -0.437038 1.90944 204 69 100 0.54074 0.028895 -0.840693
-0.476155 -0.40886 1.90944 195 66 93 0.496803 0.641633 -0.584375
-0.560579 -0.458143 1.90908 197 102 108 -0.423902 0.663282 -0.616736
-0.461079 -0.443068 1.90704 199 60 94 0.457177 0.594498 -0.661484
-0.551533 -0.421962 1.90864 192 62 89 -0.674949 0.668475 -0.312386
-0.557564 -0.458143 1.90707 177 101 102 -0.443972 0.513291 -0.734452
-0.461079 -0.440053 1.90941 199 60 94 0.677288 0.139662 -0.72234
-0.521382 -0.38578 1.90843 200 80 105 -0.263596 0.595064 -0.75922
-0.557564 -0.455128 1.90873 177 101 102 -0.515404 0.03436 -0.856258
-0.461079 -0.434022 1.90884 217 76 109 0.366189 0.178108 -0.913336
-0.464094 -0.437038 1.90666 209 70 103 0.530574 0.242857 -0.812103
-0.560579 -0.452113 1.90938 197 102 108 -0.476951 -0.411839 -0.77647
-0.518367 -0.38578 1.90767 199 97 112 -0.259238 0.56404 -0.783999
-0.509321 -0.382765 1.90845 198 85 105 0.140023 0.706137 -0.694092
-0.461079 -0.437038 1.90855 204 65 97 0.533926 0.040218 -0.844574
-0.557564 -0.452113 1.90754 197 102 108 -0.505965 -0.373412 -0.777537
-0.464094 -0.434022 1.90784 209 70 103 0.450958 0.3074 -0.837939
-0.560579 -0.449098 1.9078 208 86 104 -0.566517 -0.234367 -0.790019
-0.542488 -0.409901 1.90864 210 82 110 -0.750057 0.243729 -0.614826
-0.506306 -0.382765 1.90923 198 85 105 0.192297 0.739959 -0.64458
-0.515352 -0.38578 1.9066 199 112 120 -0.279325 0.553915 -0.784319
-0.560579 -0.446083 1.90791 206 78 99 -0.612984 0.171879 -0.771173
-0.539473 -0.403871 1.90742 210 82 110 -0.818726 0.306433 -0.485578
-0.515352 -0.382765 1.90853 199 112 120 -0.261222 0.536523 -0.802438
-0.503291 -0.38578 1.90769 194 71 96 0.529309 0.660375 -0.532669
-0.560579 -0.443068 1.90937 201 65 93 -0.62988 0.340168 -0.698239
-0.539473 -0.400856 1.90935 194 81 102 -0.816891 0.310072 -0.486357
-0.542488 -0.412917 1.90754 194 58 92 -0.662495 0.336945 -0.669006
-0.512336 -0.382765 1.90783 205 127 132 -0.001368 0.603278 -0.79753
-0.46711 -0.431007 1.90713 214 76 107 0.546041 0.223031 -0.807525
-0.536458 -0.397841 1.90719 196 91 107 -0.648975 0.591959 -0.477928
-0.557564 -0.440053 1.90826 204 67 96 -0.756072 0.159093 -0.634858
-0.46711 -0.427992 1.90762 214 76 107 0.55936 -0.017867 -0.828732
-0.557564 -0.437038 1.90837 212 77 108 -0.758097 0.026624 -0.651599
-0.464094 -0.431007 1.9091 216 71 107 0.497213 0.193778 -0.845712
-0.557564 -0.434022 1.90857 213 79 109 -0.779099 0.110458 -0.617093
-0.464094 -0.427992 1.90908 223 76 113 0.372944 0.051395 -0.926429
-0.4852 -0.400856 1.90811 190 67 90 0.609142 0.534897 -0.585518
-0.46711 -0.424977 1.90667 221 79 112 0.684247 0.018191 -0.729024
-0.533442 -0.394826 1.90718 190 83 102 -0.578676 0.701375 -0.416182
-0.46711 -0.421962 1.90734 221 79 112 0.655492 0.34491 -0.671839
-0.554548 -0.455128 1.90661 194 114 116 -0.57556 -0.001361 -0.817758
-0.530427 -0.391811 1.90938 192 73 97 -0.492547 0.660652 -0.566513
-0.47314 -0.412917 1.90868 200 70 96 0.512147 0.528938 -0.676705
-0.527412 -0.391811 1.90682 192 73 97 -0.457609 0.641993 -0.615174
-0.476155 -0.409901 1.90872 200 71 96 0.59268 0.5454 -0.59268
-0.554548 -0.427992 1.9076 212 90 109 -0.762908 0.250108 -0.596169
-0.524397 -0.388795 1.90739 205 81 109 -0.405333 0.536615 -0.740101
-0.488215 -0.397841 1.90685 190 67 89 0.661471 0.628315 -0.409482
-0.470125 -0.415932 1.90863 201 69 97 0.641437 0.493283 -0.587563
-0.497261 -0.391811 1.90798 191 66 93 0.619033 0.649067 -0.442166
-0.452034 -0.455128 1.90669 217 132 123 0.49001 0.408613 -0.770016
-0.500276 -0.388795 1.90725 191 67 93 0.662368 0.629166 -0.406717
-0.449019 -0.455128 1.90856 219 134 123 0.506181 0.080369 -0.858674
-0.470125 -0.467189 1.90665 160 101 90 0.415384 -0.580875 -0.700029
-0.452034 -0.452113 1.90837 214 128 121 0.656013 0.373221 -0.656013
-0.449019 -0.452113 1.90922 219 134 125 0.293463 0.335174 -0.895286
-0.46711 -0.467189 1.90844 227 166 144 0.347541 -0.634711 -0.690187
-0.482185 -0.403871 1.90891 195 72 94 0.696236 0.505898 -0.509237
-0.464094 -0.467189 1.90932 222 161 137 0.146408 -0.729023 -0.668648
-0.458064 -0.464174 1.90703 227 159 134 0.05147 -0.925138 -0.376126
-0.455049 -0.464174 1.90743 227 159 134 0.277342 -0.762295 -0.584796
-0.452034 -0.464174 1.909 227 159 134 0.49018 -0.496826 -0.716161
-0.455049 -0.446083 1.90793 193 64 89 0.575612 0.445474 -0.685729
-0.458064 -0.443068 1.90907 197 59 90 0.370189 0.633434 -0.679502
-0.527412 -0.385665 1.91246 200 84 105 -0.663361 0.456165 -0.593182
-0.455049 -0.437309 1.91246 206 63 99 0.414342 0.443362 -0.794827
-0.525066 -0.382765 1.91246 200 84 105 -0.564768 0.534423 -0.628832
-0.452034 -0.439919 1.91246 206 63 99 0.424183 0.427409 -0.798367
-0.56496 -0.458143 1.91246 195 90 103 -0.474978 0.458542 -0.751089
-0.524397 -0.382272 1.91246 204 79 108 -0.322423 0.652946 -0.68535
-0.451906 -0.440053 1.91246 206 63 99 0.50142 0.429084 -0.751308
-0.563594 -0.45644 1.91246 195 90 103 -0.522217 0.33904 -0.782522
-0.45632 -0.434022 1.91246 218 68 106 0.617542 0.22244 -0.754428
-0.563594 -0.452449 1.91246 195 90 103 -0.611808 -0.113516 -0.782819
-0.45753 -0.431007 1.91246 218 68 106 0.618459 0.275047 -0.73611
-0.521382 -0.381194 1.91246 200 80 105 -0.288984 0.608304 -0.739225
-0.503291 -0.382261 1.91246 196 67 97 0.527104 0.537208 -0.658459
-0.519208 -0.37975 1.91246 199 82 105 -0.377506 0.547465 -0.746841
-0.563795 -0.452113 1.91246 195 90 103 -0.648929 -0.290015 -0.703407
-0.458064 -0.430078 1.91246 218 71 107 0.513298 0.217809 -0.830111
-0.562973 -0.455128 1.91246 197 102 108 -0.612421 0.00137 -0.79053
-0.448791 -0.464174 1.91246 233 157 133 0.568104 -0.688055 -0.451484
-0.459251 -0.427992 1.91246 218 71 107 0.585116 0.260227 -0.768063
-0.518367 -0.379079 1.91246 200 86 108 -0.369361 0.501621 -0.782271
-0.515352 -0.376911 1.91246 200 86 108 -0.197281 0.579609 -0.790654
-0.461079 -0.425717 1.91246 212 82 109 0.516705 0.434164 -0.737914
-0.446004 -0.461323 1.91246 233 157 133 0.602818 -0.579178 -0.548784
-0.512336 -0.376997 1.91246 201 106 119 0.189141 0.727349 -0.659689
-0.445892 -0.461159 1.91246 227 145 127 0.581759 -0.527799 -0.618857
-0.509321 -0.378093 1.91246 199 93 110 0.279911 0.776476 -0.564566
-0.44377 -0.458143 1.91246 226 140 124 0.549725 -0.446756 -0.705841
-0.54453 -0.409901 1.91246 210 82 110 -0.871007 0.281215 -0.402822
-0.543843 -0.406886 1.91246 210 82 110 -0.897105 0.208595 -0.389475
-0.505754 -0.37975 1.91246 196 67 97 0.500495 0.635308 -0.588123
-0.461463 -0.424977 1.91246 211 75 105 0.675631 0.11088 -0.728854
-0.461734 -0.421962 1.91246 211 78 105 0.672682 0.293797 -0.679104
-0.543471 -0.403871 1.91246 209 83 110 -0.906239 0.264991 -0.329408
-0.463781 -0.418947 1.91246 200 75 98 0.680931 0.486857 -0.547087
-0.542488 -0.40224 1.91246 194 81 102 -0.780381 0.468877 -0.413715
-0.541431 -0.400856 1.91246 194 81 102 -0.784369 0.449835 -0.427099
-0.464094 -0.418532 1.91246 201 76 98 0.594763 0.49704 -0.63183
-0.46665 -0.415932 1.91246 201 76 98 0.528307 0.518244 -0.672543
-0.46711 -0.415532 1.91246 199 72 97 0.596711 0.47905 -0.643776
-0.506306 -0.379478 1.91246 198 76 102 0.347265 0.770443 -0.534626
-0.469076 -0.412917 1.91246 199 72 97 0.651948 0.474296 -0.591614
-0.539778 -0.397841 1.91246 194 81 102 -0.818157 0.521208 -0.242818
-0.470125 -0.411522 1.91246 196 72 95 0.602344 0.507859 -0.615842
-0.471663 -0.409901 1.91246 196 72 95 0.583862 0.553399 -0.594016
-0.539473 -0.397393 1.91246 183 78 96 -0.687027 0.654696 -0.315224
-0.47314 -0.408291 1.91246 194 68 92 0.535997 0.586722 -0.607012
-0.475266 -0.406886 1.91246 194 68 92 0.45393 0.547044 -0.703342
-0.449019 -0.447784 1.91246 195 62 88 0.574597 0.150738 -0.804435
-0.536922 -0.394826 1.91246 190 84 102 -0.653015 0.738257 -0.168962
-0.536458 -0.394472 1.91246 190 83 102 -0.603716 0.781369 -0.15808
-0.449376 -0.446083 1.91246 195 62 88 0.630464 0.04392 -0.774975
-0.533442 -0.392343 1.91246 190 83 102 -0.535454 0.765165 -0.357508
-0.532772 -0.391811 1.91246 192 73 97 -0.620924 0.68351 -0.383754
-0.442989 -0.457252 1.91246 221 130 123 0.49885 -0.203458 -0.842469
-0.530427 -0.389607 1.91246 199 74 101 -0.631236 0.644561 -0.431373
-0.461079 -0.467746 1.91246 222 161 137 0.506758 -0.506758 -0.697419
-0.442989 -0.453385 1.91246 218 128 121 0.629272 0.264706 -0.730717
-0.460231 -0.467189 1.91246 227 159 134 0.288861 -0.742101 -0.604852
-0.443837 -0.452113 1.91246 218 128 121 0.41924 0.584948 -0.694315
-0.529768 -0.388795 1.91246 199 74 101 -0.702907 0.522589 -0.482518
-0.527494 -0.38578 1.91246 197 74 100 -0.719699 0.541015 -0.435128
-0.458064 -0.466298 1.91246 227 159 134 0.209939 -0.918306 -0.335617
-0.44252 -0.455128 1.91246 222 126 120 0.676648 0.080034 -0.731944
-0.455049 -0.465574 1.91246 227 159 134 0.21209 -0.931228 -0.296364
-0.452034 -0.465044 1.91246 227 159 134 0.243455 -0.944935 -0.218697
-0.446004 -0.450736 1.91246 209 108 111 0.409554 0.654955 -0.635058
-0.448374 -0.449098 1.91246 209 108 111 0.503128 0.56034 -0.657937
-0.449019 -0.464307 1.91246 227 159 134 0.25751 -0.950495 -0.17392
-0.449343 -0.443068 1.91246 199 56 91 0.492517 0.25475 -0.832184
-0.455333 -0.437038 1.91246 207 62 99 0.551544 0.172827 -0.816045
-0.565181 -0.449098 1.91246 195 90 103 -0.723554 -0.104628 -0.682292
-0.564604 -0.446083 1.91246 195 90 103 -0.754666 0.095249 -0.649159
-0.564261 -0.443068 1.91246 209 68 102 -0.740351 0.107876 -0.663508
-0.563594 -0.440477 1.91246 209 68 102 -0.600149 0.239746 -0.763114
