ply
format ascii 1.0
element vertex 752
property float x
property float y
property float z
property uchar red
property uchar green
property uchar blue
property float nx
property float ny
property float nz
end_header
-1.6486 -1.03403 1.43004 121 81 90 0.317697 0.360259 -0.877087
-1.66713 -1.028 1.42754 93 92 92 0.514162 0.334766 -0.789664
-1.65206 -1.05514 1.42702 93 77 85 0.001228 -0.30589 -0.952066
-1.66713 -1.02499 1.42894 93 92 92 0.544248 0.451044 -0.707356
-1.64904 -1.04911 1.42718 93 77 85 0.252147 0.213567 -0.943828
-1.67015 -1.02197 1.42886 93 92 92 0.594016 0.553399 -0.583862
-1.64602 -1.05514 1.42807 114 78 87 0.279509 -0.332749 -0.90064
-1.64602 -1.05212 1.42718 114 78 87 0.275483 -0.018366 -0.96113
-1.67316 -1.01896 1.42847 93 92 92 0.67788 0.48707 -0.550673
-1.64301 -1.05514 1.42881 114 78 87 0.196487 -0.265189 -0.943964
-1.64301 -1.03705 1.42979 121 83 88 0.068214 0.08387 -0.994139
-1.64301 -1.05212 1.4283 114 78 87 0.335987 0.039906 -0.941021
-1.64602 -1.04911 1.42796 114 78 87 0.268173 0.237284 -0.933691
-1.64301 -1.04911 1.42898 120 81 91 0.365926 0.276312 -0.888679
-1.6611 -1.04308 1.42718 85 82 87 0.328071 0.156422 -0.931612
-1.65808 -1.04609 1.42786 86 80 85 0.092558 0.196223 -0.976181
-1.65507 -1.04609 1.42738 86 80 85 -0.171933 0.161744 -0.97174
-1.64904 -1.08529 1.42834 90 82 85 0.583955 0.287999 -0.758982
-1.64904 -1.08228 1.42922 90 82 85 0.601281 0.208671 -0.771309
-1.65808 -1.04308 1.42816 84 80 85 0.070192 0.116219 -0.99074
-1.65206 -1.07926 1.42763 90 82 85 0.593482 0.187656 -0.782664
-1.65507 -1.04308 1.42786 86 80 85 -0.240741 0.053086 -0.969137
-1.64904 -1.07926 1.42995 90 82 85 0.606252 0.181723 -0.774232
-1.6611 -1.04006 1.42769 95 89 92 0.325572 0.13486 -0.93585
-1.65206 -1.07624 1.42834 90 82 85 0.574597 0.150738 -0.804435
-1.65206 -1.07323 1.42873 90 82 85 0.595791 0.184375 -0.78169
-1.65808 -1.04006 1.42852 89 72 81 0.075082 0.079565 -0.993998
-1.65507 -1.04006 1.42801 91 75 84 -0.219769 0.11052 -0.969271
-1.65507 -1.07021 1.42705 99 83 88 0.716748 0.009742 -0.697264
-1.65808 -1.03705 1.42856 91 76 84 0.073087 0.124131 -0.98957
-1.65507 -1.0672 1.42707 99 83 88 0.674905 -0.083088 -0.733212
-1.65507 -1.03705 1.42878 91 75 84 -0.210889 0.309965 -0.927064
-1.65507 -1.06117 1.42719 99 83 88 0.366607 0.155913 -0.917219
-1.64904 -1.04609 1.42786 109 77 87 0.388399 0.279587 -0.878053
-1.65206 -1.04308 1.42765 104 80 91 0.540781 -0.026145 -0.840757
-1.64904 -1.07021 1.42983 102 83 89 0.000978 0.000978 -0.999999
-1.64904 -1.04308 1.42939 118 78 90 0.41101 0.060641 -0.909612
-1.64602 -1.04609 1.42891 121 79 91 0.291119 0.299896 -0.908467
-1.64602 -1.04308 1.42979 124 82 93 0.103879 0.071916 -0.991987
-1.65206 -1.06418 1.42888 85 83 89 0.369249 -0.19109 -0.909472
-1.64904 -1.06418 1.42931 85 82 88 0.204994 -0.213033 -0.955298
-1.64301 -1.04308 1.42961 128 85 94 0.052072 -0.03932 -0.997869
-1.65206 -1.06117 1.4284 81 82 88 0.261813 -0.058877 -0.963321
-1.64904 -1.04006 1.42831 126 82 94 0.59095 -0.109978 -0.799176
-1.64904 -1.06117 1.42884 86 80 87 0.225656 -0.127657 -0.965807
-1.65206 -1.03705 1.4279 113 78 88 -0.020133 0.47112 -0.881839
-1.64904 -1.03705 1.42855 113 78 88 0.340522 0.30452 -0.889557
-1.64602 -1.04006 1.42968 128 88 96 0.19871 -0.039266 -0.979271
-1.64301 -1.04006 1.42976 128 88 96 0.053648 0.024194 -0.998267
-1.64602 -1.06117 1.42977 102 75 84 0.313325 -0.060602 -0.94771
-1.64602 -1.03705 1.42971 130 89 98 0.15198 0.067154 -0.9861
-1.65507 -1.05815 1.42778 85 83 89 0.256543 -0.045856 -0.965444
-1.63999 -1.05514 1.42928 131 91 98 0.244196 -0.117576 -0.962572
-1.63999 -1.05212 1.42942 130 90 98 0.338319 0.058781 -0.939194
-1.66411 -1.03403 1.42736 94 90 92 0.298297 0.17183 -0.938879
-1.65206 -1.05815 1.428 87 81 88 0.081758 -0.240244 -0.967263
-1.6611 -1.03403 1.42844 93 81 86 0.268333 0.178435 -0.946657
-1.66411 -1.03102 1.42814 82 81 86 0.35201 0.295089 -0.888263
-1.64904 -1.05815 1.42837 88 81 88 0.256837 -0.317782 -0.912715
-1.6611 -1.03102 1.42905 97 91 93 0.26788 0.29684 -0.916584
-1.64602 -1.05815 1.4297 105 76 86 0.328897 -0.222616 -0.917752
-1.65808 -1.03403 1.42896 103 70 80 0.153733 0.20024 -0.967611
-1.65507 -1.03403 1.4294 123 83 95 0.025732 0.263445 -0.964331
-1.65808 -1.03102 1.42991 94 78 87 0.208857 0.295765 -0.932149
-1.66411 -1.028 1.42961 88 83 90 0.502218 0.36657 -0.783201
-1.65206 -1.03403 1.42945 125 85 94 0.094867 0.400093 -0.911551
-1.64904 -1.03403 1.42979 129 89 97 0.154339 0.383724 -0.910459
-1.67316 -1.01676 1.43004 93 92 92 0.70771 0.351403 -0.612913
-1.67507 -1.01293 1.43004 93 92 92 0.70067 0.336517 -0.62914
-1.64301 -1.09026 1.43004 95 69 72 0.476381 0.408094 -0.778794
-1.63698 -1.09516 1.43004 95 69 72 0.322407 0.374359 -0.86943
-1.64157 -1.09132 1.43004 95 69 72 0.345588 0.446582 -0.825308
-1.63474 -1.09735 1.43004 95 69 72 0.390561 0.328812 -0.859852
-1.64904 -1.09132 1.42579 95 69 72 0.507619 0.362585 -0.781572
-1.64301 -1.09132 1.42935 95 69 72 0.452866 0.404517 -0.79453
-1.63698 -1.09735 1.42911 95 69 72 0.379471 0.370102 -0.847954
-1.65507 -1.02535 1.43305 102 84 91 0.085284 0.468366 -0.879409
-1.63396 -1.0509 1.43305 132 94 98 0.112423 0.401115 -0.909103
-1.63517 -1.04911 1.43305 132 94 98 0.484077 0.073937 -0.871896
-1.63095 -1.04955 1.43305 103 68 75 -0.08823 0.317364 -0.944191
-1.6242 -1.06117 1.43305 135 101 100 0.422079 -0.349902 -0.836312
-1.65777 -1.02499 1.43305 102 84 91 0.056984 0.372386 -0.926327
-1.6219 -1.05854 1.43305 135 101 100 0.454766 -0.365409 -0.812197
-1.64301 -1.03165 1.43305 115 73 83 0.297613 0.561804 -0.771883
-1.62171 -1.05815 1.43305 135 101 100 0.582673 -0.037727 -0.81183
-1.62167 -1.05514 1.43305 135 101 100 0.542719 -0.048831 -0.838494
-1.64362 -1.03102 1.43305 115 73 83 0.448563 0.393899 -0.802268
-1.65206 -1.02594 1.43305 117 76 86 0.10826 0.437259 -0.892796
-1.64904 -1.02668 1.43305 117 76 86 0.196766 0.403736 -0.893466
-1.6219 -1.05468 1.43305 106 68 72 0.335551 0.226101 -0.914485
-1.64602 -1.02835 1.43305 102 59 73 0.416738 0.400771 -0.815912
-1.62362 -1.05212 1.43305 106 68 72 0.366095 0.206923 -0.90728
-1.66713 -1.02157 1.43305 93 92 92 0.486386 0.453411 -0.746891
-1.64669 -1.028 1.43305 102 59 73 0.223939 0.413769 -0.88241
-1.66916 -1.01896 1.43305 93 92 92 0.548149 0.279603 -0.78826
-1.66411 -1.02278 1.43305 84 82 87 0.387347 0.618106 -0.684038
-1.63454 -1.04609 1.43305 137 99 101 0.333366 -0.168775 -0.927568
-1.64301 -1.08471 1.43305 90 82 85 0.537872 0.271288 -0.798183
-1.64403 -1.08228 1.43305 90 82 85 0.599599 0.107019 -0.793113
-1.63396 -1.04563 1.43305 132 93 97 0.090463 -0.305476 -0.947893
-1.64399 -1.07926 1.43305 90 82 85 0.571957 0.241562 -0.783909
-1.66635 -1.02197 1.43305 84 82 87 0.229199 0.597165 -0.768675
-1.63095 -1.04489 1.43305 132 93 96 0.114169 -0.232187 -0.965948
-1.6611 -1.02446 1.43305 84 82 87 0.124806 0.34973 -0.9285
-1.62793 -1.04753 1.43305 128 91 95 0.140641 0.279942 -0.949659
-1.64578 -1.07624 1.43305 86 81 84 0.688732 0.012522 -0.724908
-1.62878 -1.04308 1.43305 128 90 95 0.1541 -0.233125 -0.960159
-1.64602 -1.07352 1.43305 85 81 85 0.509457 0.060018 -0.8584
-1.62793 -1.04261 1.43305 137 100 102 0.283197 -0.395265 -0.873822
-1.63999 -1.0337 1.43305 113 72 81 0.268068 0.604343 -0.750273
-1.62492 -1.04042 1.43305 136 98 101 0.306266 -0.439966 -0.844175
-1.63698 -1.03388 1.43305 112 70 80 0.028938 0.538789 -0.841944
-1.64615 -1.07323 1.43305 85 81 85 0.609379 0.001369 -0.792878
-1.62428 -1.04006 1.43305 132 93 96 0.303511 -0.333413 -0.89259
-1.63095 -1.03404 1.43305 116 77 83 0.001259 0.353743 -0.935342
-1.63099 -1.03403 1.43305 116 77 83 0.038033 0.379023 -0.924605
-1.62245 -1.03705 1.43305 136 97 99 0.415245 0.175069 -0.892705
-1.64602 -1.07266 1.43305 97 80 87 0.503657 -0.204185 -0.839428
-1.63396 -1.03351 1.43305 116 77 83 0.004125 0.622844 -0.782336
-1.64484 -1.07021 1.43305 111 84 91 0.426839 -0.245847 -0.870269
-1.64301 -1.06748 1.43305 116 84 91 0.401346 -0.291472 -0.868312
-1.62908 -1.03403 1.43305 123 85 90 0.042139 0.46897 -0.882208
-1.64245 -1.08529 1.43305 88 82 85 0.419613 0.448776 -0.789003
-1.62492 -1.03474 1.43305 128 91 95 0.278877 0.419077 -0.864061
-1.62786 -1.03403 1.43305 128 91 95 0.115882 0.482128 -0.868403
-1.62793 -1.03402 1.43305 123 85 90 0.001371 0.618487 -0.785794
-1.64235 -1.0672 1.43305 131 94 98 0.093764 -0.315627 -0.944239
-1.63698 -1.06878 1.43305 131 94 98 -0.15194 -0.214274 -0.964884
-1.63856 -1.0672 1.43305 131 94 98 -0.133873 -0.271723 -0.953019
-1.63999 -1.06683 1.43305 133 95 99 0.001246 -0.332624 -0.943059
-1.66713 -1.02197 1.43257 93 92 92 0.624012 0.63405 -0.456717
-1.64301 -1.06117 1.43098 120 84 93 0.302219 -0.188017 -0.934512
-1.67015 -1.01896 1.43226 93 92 92 0.65803 0.377666 -0.651433
-1.64301 -1.05815 1.43024 120 84 93 0.156539 -0.29266 -0.943317
-1.65507 -1.03102 1.43025 102 84 91 0.103839 0.408434 -0.906862
-1.64301 -1.04609 1.43013 118 80 91 0.271059 -0.001205 -0.962562
-1.64602 -1.08529 1.43064 90 82 85 0.54189 0.34778 -0.765117
-1.6611 -1.028 1.4308 92 78 88 0.268986 0.495991 -0.825615
-1.64602 -1.08228 1.43151 90 82 85 0.560604 0.186868 -0.806724
-1.66411 -1.02499 1.43115 99 78 90 0.453424 0.526503 -0.719167
-1.64301 -1.08529 1.4327 90 82 85 0.509738 0.411396 -0.755593
-1.63999 -1.06117 1.43171 132 93 98 0.112382 -0.210874 -0.971032
-1.6611 -1.02499 1.43286 99 78 90 0.243882 0.539026 -0.806209
-1.65808 -1.028 1.43123 102 84 91 0.106604 0.479009 -0.871313
-1.64602 -1.07926 1.43222 90 82 85 0.549159 0.176032 -0.816968
-1.63999 -1.05815 1.43059 132 93 98 0.054679 -0.390753 -0.91887
-1.65507 -1.028 1.43161 102 84 91 0.102444 0.447665 -0.888314
-1.64904 -1.07624 1.4304 90 82 85 0.61101 0.132311 -0.780487
-1.65808 -1.02499 1.43303 102 84 91 0.052742 0.434106 -0.899316
-1.65206 -1.03102 1.43058 117 76 86 0.140135 0.40908 -0.901674
-1.64904 -1.07323 1.43082 90 82 85 0.597845 -0.058222 -0.799494
-1.64904 -1.03102 1.4312 117 76 86 0.201944 0.387906 -0.899304
-1.63698 -1.06117 1.43188 132 93 98 0.061419 -0.193893 -0.979098
-1.64602 -1.07624 1.43292 89 82 85 0.58143 0.128714 -0.80335
-1.63698 -1.05815 1.43061 132 93 98 0.149233 -0.24696 -0.957466
-1.64602 -1.03403 1.43087 120 80 86 0.194814 0.420388 -0.886184
-1.63698 -1.05514 1.43052 132 93 98 0.193473 0.130246 -0.972422
-1.64301 -1.03403 1.43064 125 87 93 0.206272 0.542419 -0.814392
-1.63396 -1.06117 1.43225 133 95 99 -0.057723 -0.059901 -0.996534
-1.65206 -1.07021 1.43009 90 83 89 0.06427 0.017911 -0.997772
-1.64602 -1.03102 1.43186 107 64 74 0.301173 0.346124 -0.888534
-1.65206 -1.0672 1.4301 90 83 89 0.009168 0.035654 -0.999322
-1.65206 -1.028 1.43197 117 76 86 0.128919 0.429258 -0.893934
-1.63396 -1.05815 1.43123 133 95 99 0.051255 -0.18714 -0.980995
-1.64904 -1.0672 1.43023 90 83 89 0.180586 -0.014953 -0.983446
-1.63095 -1.06117 1.43153 128 90 96 0.012349 -0.147066 -0.98905
-1.64904 -1.028 1.4325 117 76 86 0.167867 0.403169 -0.899597
-1.64602 -1.07021 1.4323 97 80 87 0.569915 -0.217772 -0.792321
-1.63095 -1.05815 1.43106 128 90 96 0.082242 -0.013885 -0.996516
-1.63396 -1.05514 1.43077 135 96 102 0.118038 0.147244 -0.982032
-1.64602 -1.0672 1.43123 111 84 91 0.420422 -0.268645 -0.866646
-1.63095 -1.05514 1.43125 112 76 83 0.102789 0.151161 -0.98315
-1.64301 -1.0672 1.43294 116 84 91 0.419223 -0.328833 -0.846239
-1.63698 -1.05212 1.43134 128 89 95 0.41647 0.231372 -0.879215
-1.63999 -1.03705 1.43016 112 70 80 0.301704 0.241649 -0.922269
-1.64602 -1.06418 1.43018 122 89 94 0.436304 -0.305879 -0.846213
-1.63999 -1.03403 1.43238 112 70 80 0.272719 0.562779 -0.780323
-1.63999 -1.04911 1.43084 128 89 95 0.358558 0.137055 -0.923392
-1.63698 -1.03705 1.43124 112 70 80 0.294187 0.320797 -0.900302
-1.63698 -1.04911 1.43175 128 89 95 0.441532 0.132888 -0.88735
-1.64301 -1.06418 1.43167 122 88 93 0.283192 -0.265942 -0.921454
-1.63396 -1.05212 1.43213 132 94 98 0.065603 0.386922 -0.919776
-1.63698 -1.03403 1.43293 112 70 80 0.120104 0.436614 -0.891596
-1.63396 -1.03705 1.43234 121 84 89 0.099689 0.180918 -0.978433
-1.63396 -1.03403 1.43266 121 84 89 0.019868 0.195178 -0.980566
-1.63095 -1.03705 1.43192 116 77 83 -0.022051 0.182211 -0.983012
-1.63095 -1.05212 1.43201 126 88 96 0.056676 0.270784 -0.96097
-1.63698 -1.0672 1.43273 131 94 98 -0.106567 -0.242665 -0.964239
-1.62793 -1.03705 1.43224 123 85 90 0.094998 0.116109 -0.988683
-1.62793 -1.06117 1.43188 127 96 97 0.202364 -0.240393 -0.949347
-1.62793 -1.05815 1.43154 127 96 97 0.187548 -0.022133 -0.982006
-1.62793 -1.03403 1.43305 123 85 90 0.001197 0.259673 -0.965696
-1.62492 -1.03705 1.43236 128 91 95 0.146129 0.026054 -0.988922
-1.63999 -1.06418 1.43214 133 95 99 0.035839 -0.268173 -0.962704
-1.62492 -1.06117 1.43275 98 68 71 0.251079 -0.248274 -0.935585
-1.63698 -1.06418 1.43195 139 102 105 -0.075119 -0.163354 -0.983703
-1.62492 -1.05815 1.43202 98 68 71 0.239358 -0.022853 -0.970662
-1.63396 -1.06418 1.43159 135 100 101 0.003214 -0.097488 -0.995232
-1.62793 -1.05514 1.43187 79 46 55 0.202314 0.128514 -0.970852
-1.62492 -1.05514 1.43277 121 94 93 0.190965 0.094867 -0.977002
-1.6219 -1.05815 1.43295 135 101 100 0.196697 0.092782 -0.976064
-1.63095 -1.06418 1.43228 135 99 101 0.187703 -0.241718 -0.952019
-1.6219 -1.05514 1.43294 139 107 105 0.109419 0.027631 -0.993612
-1.63999 -1.04609 1.43092 128 88 93 0.335988 -0.050593 -0.940507
-1.63698 -1.04609 1.43187 128 89 93 0.379116 -0.019409 -0.925146
-1.63999 -1.04308 1.4303 128 89 93 0.394709 -0.121342 -0.910759
-1.63698 -1.04308 1.43166 128 89 93 0.308472 -0.116178 -0.944112
-1.63396 -1.04308 1.43209 132 93 97 0.135881 -0.194297 -0.971486
-1.63095 -1.04308 1.43253 132 93 96 0.11799 -0.175122 -0.977451
-1.63999 -1.04006 1.43009 136 99 101 0.386216 -0.043499 -0.921382
-1.63698 -1.04006 1.43136 140 104 104 0.321426 -0.023949 -0.946632
-1.63396 -1.04006 1.43206 130 90 95 0.07101 -0.018017 -0.997313
-1.63095 -1.04006 1.43188 132 93 97 0.052954 -0.109287 -0.992599
-1.62793 -1.04006 1.43209 137 100 102 0.165474 -0.155369 -0.973899
-1.62492 -1.04006 1.43291 136 98 101 0.207435 -0.165687 -0.964115
-1.64301 -1.07905 1.43607 92 82 84 0.628932 0.504157 -0.591837
-1.61889 -1.04951 1.43607 106 68 72 0.001176 0.231726 -0.97278
-1.61889 -1.06543 1.43607 143 107 104 0.20811 -0.289119 -0.934399
-1.6195 -1.04911 1.43607 106 68 72 0.243571 0.312751 -0.918074
-1.62993 -1.02499 1.43607 115 71 83 0.109783 0.176393 -0.978179
-1.64333 -1.07624 1.43607 92 82 84 0.80493 0.294563 -0.515092
-1.61754 -1.06418 1.43607 143 107 104 0.247554 -0.185327 -0.950984
-1.63095 -1.02446 1.43607 115 71 83 0.034987 0.225603 -0.973591
-1.64301 -1.0755 1.43607 99 82 86 0.442241 -0.49485 -0.748029
-1.6219 -1.0478 1.43607 125 86 89 0.351705 0.407978 -0.84253
-1.62315 -1.04609 1.43607 125 86 89 0.574928 0.097028 -0.81243
-1.61587 -1.06128 1.43607 143 107 104 0.264043 -0.141973 -0.954005
-1.63698 -1.08328 1.43607 88 82 85 0.082277 0.373617 -0.923927
-1.62271 -1.04308 1.43607 129 90 96 0.533986 -0.299476 -0.790679
-1.63901 -1.08228 1.43607 88 82 85 0.223029 0.308263 -0.924788
-1.63999 -1.08132 1.43607 88 82 85 0.373873 0.246786 -0.894045
-1.61585 -1.06117 1.43607 143 107 104 0.341642 -0.001251 -0.939829
-1.6219 -1.04255 1.43607 130 91 95 0.332967 -0.456054 -0.825316
-1.64091 -1.07926 1.43607 88 82 85 0.383819 0.224997 -0.895578
-1.61893 -1.04006 1.43607 132 93 96 0.463659 -0.252488 -0.849276
-1.61587 -1.06112 1.43607 135 99 99 0.284458 0.132213 -0.949528
-1.61704 -1.05815 1.43607 135 99 99 0.356609 -0.078801 -0.930924
-1.61587 -1.05604 1.43607 136 99 99 0.288384 -0.237242 -0.927659
-1.61491 -1.05514 1.43607 135 99 99 0.260146 -0.171184 -0.950274
-1.61335 -1.05212 1.43607 135 96 99 0.324464 -0.011275 -0.945831
-1.61783 -1.04911 1.43607 130 91 93 -0.064672 0.272638 -0.959941
-1.61909 -1.03705 1.43607 130 92 95 0.642864 0.286964 -0.710196
-1.63425 -1.08228 1.43607 88 82 85 -0.152437 0.190867 -0.969707
-1.61484 -1.04911 1.43607 138 99 101 0.219738 0.227927 -0.948559
-1.63396 -1.08217 1.43607 88 82 85 -0.204546 0.072265 -0.976186
-1.63342 -1.07926 1.43607 88 82 85 -0.347694 -0.083926 -0.933844
-1.61587 -1.04869 1.43607 134 96 97 0.001263 0.359825 -0.933019
-1.63999 -1.02828 1.43607 110 65 78 0.001326 0.481358 -0.876523
-1.63999 -1.0756 1.43607 88 82 85 0.045011 -0.473294 -0.879754
-1.64105 -1.028 1.43607 110 65 78 0.351978 0.257725 -0.899827
-1.63698 -1.07536 1.43607 88 82 85 -0.062675 -0.502794 -0.862131
-1.63827 -1.028 1.43607 110 66 78 -0.11685 0.274399 -0.95449
-1.63396 -1.07756 1.43607 80 75 79 -0.299429 -0.104206 -0.948411
-1.64137 -1.02499 1.43607 110 65 78 0.258622 0.096501 -0.961146
-1.63498 -1.07624 1.43607 80 75 79 -0.238101 -0.295131 -0.925314
-1.63698 -1.02586 1.43607 110 63 78 -0.076455 0.142325 -0.986863
-1.63502 -1.02499 1.43607 114 73 82 -0.056783 0.14022 -0.988491
-1.62492 -1.08079 1.43607 117 98 96 0.267363 0.20918 -0.940617
-1.62669 -1.07926 1.43607 117 98 96 0.28363 0.14652 -0.947674
-1.62178 -1.03403 1.43607 124 84 91 0.605739 0.507876 -0.612488
-1.6219 -1.03387 1.43607 122 80 88 0.602751 0.413458 -0.682454
-1.62479 -1.08529 1.43607 79 77 79 0.337516 0.03465 -0.940682
-1.62411 -1.08228 1.43607 79 77 79 0.398052 0.040995 -0.916446
-1.62723 -1.07624 1.43607 124 101 99 0.502427 -0.330166 -0.799098
-1.62492 -1.07381 1.43607 134 107 104 0.483827 -0.507104 -0.713271
-1.62407 -1.07323 1.43607 117 98 96 0.647355 -0.402321 -0.647355
-1.62383 -1.03102 1.43607 122 80 88 0.571146 0.302371 -0.763128
-1.62492 -1.02951 1.43607 124 85 91 0.237474 0.294354 -0.925722
-1.62691 -1.028 1.43607 124 85 91 0.209743 0.225981 -0.951284
-1.62793 -1.02688 1.43607 124 85 91 0.182535 0.1519 -0.971394
-1.64301 -1.02254 1.43607 115 71 83 0.168738 0.205363 -0.96403
-1.63396 -1.02431 1.43607 115 71 83 0.00586 0.216803 -0.976198
-1.61889 -1.06418 1.43573 143 107 104 0.162825 -0.108958 -0.98062
-1.63095 -1.02499 1.43598 115 71 83 0.022615 0.085074 -0.996118
-1.66713 -1.01896 1.43441 93 92 92 0.358655 0.235688 -0.903226
-1.63396 -1.04911 1.43359 135 97 101 0.045057 0.028291 -0.998584
-1.61889 -1.06117 1.43559 143 107 104 0.241851 -0.089903 -0.966139
-1.63095 -1.04911 1.43315 111 76 81 -0.10106 0.043311 -0.993937
-1.61587 -1.06117 1.43606 143 107 104 0.15516 0.001116 -0.987889
-1.64301 -1.08228 1.43379 90 82 85 0.565116 0.190403 -0.802739
-1.64301 -1.07926 1.43377 90 82 85 0.770289 0.336097 -0.541936
-1.61889 -1.05815 1.43516 135 99 99 0.492305 -0.176992 -0.852238
-1.61889 -1.05514 1.43465 136 99 99 0.434883 0.061347 -0.898395
-1.64602 -1.07323 1.43314 90 82 85 0.396706 0.001284 -0.917945
-1.61587 -1.05514 1.43579 136 99 99 0.218282 -0.054875 -0.974342
-1.6219 -1.05212 1.43401 83 45 51 0.449033 0.302981 -0.840578
-1.64301 -1.07323 1.4344 99 82 86 0.344283 -0.290628 -0.892751
-1.61889 -1.05212 1.4355 135 96 99 0.227753 0.2008 -0.952789
-1.61587 -1.05212 1.43527 135 96 99 0.080471 0.05181 -0.99541
-1.6219 -1.04911 1.4352 118 78 82 0.415975 0.356325 -0.836658
-1.61587 -1.04911 1.43592 130 91 93 0.001172 0.226229 -0.974073
-1.64301 -1.07021 1.43378 121 88 95 0.180389 -0.233838 -0.955395
-1.63396 -1.04609 1.43323 130 91 94 -0.033468 -0.076654 -0.996496
-1.65507 -1.02499 1.43323 102 84 91 0.074766 0.323987 -0.943103
-1.63095 -1.04609 1.43324 130 92 94 0.013115 0.019167 -0.99973
-1.63999 -1.08529 1.43446 88 82 85 0.317109 0.448326 -0.83573
-1.64301 -1.03102 1.43349 107 62 78 0.342319 0.44959 -0.825037
-1.63999 -1.08228 1.43562 88 82 85 0.465908 0.333243 -0.819682
-1.62793 -1.04609 1.43354 137 99 102 0.250698 0.010796 -0.968005
-1.65206 -1.02499 1.4335 117 76 86 0.106744 0.341851 -0.933672
-1.63698 -1.08529 1.43501 88 82 85 0.140528 0.476636 -0.867796
-1.62492 -1.04609 1.43487 130 91 96 0.464348 0.133698 -0.875503
-1.64904 -1.02499 1.43374 117 76 86 0.205731 0.358231 -0.910684
-1.62793 -1.04308 1.43328 128 90 95 0.368812 -0.122937 -0.921338
-1.64602 -1.028 1.43325 102 59 73 0.416632 0.432718 -0.799483
-1.63396 -1.08529 1.43543 88 82 85 0.09559 0.354085 -0.930315
-1.64301 -1.028 1.43496 102 59 73 0.39389 0.353412 -0.848499
-1.63396 -1.08228 1.43596 88 82 85 -0.153428 0.197264 -0.96827
-1.62492 -1.04308 1.43449 128 90 95 0.410441 -0.366409 -0.835035
-1.63095 -1.08529 1.4353 88 82 85 0.008145 0.205945 -0.97853
-1.64602 -1.02499 1.43486 102 59 73 0.274638 0.321635 -0.906159
-1.63095 -1.08228 1.43554 88 82 85 -0.046292 0.009258 -0.998885
-1.64301 -1.02499 1.43569 102 59 73 0.245393 0.191162 -0.950389
-1.63095 -1.07926 1.43486 88 82 85 -0.067246 -0.067246 -0.995468
-1.66411 -1.02197 1.43343 84 82 87 0.158224 0.44564 -0.881119
-1.6219 -1.04006 1.43392 130 91 95 0.512864 -0.333921 -0.790865
-1.6611 -1.02197 1.43395 84 82 87 0.038302 0.394905 -0.917923
-1.63999 -1.07323 1.43488 88 82 85 0.001266 -0.360674 -0.932691
-1.63698 -1.07323 1.43458 88 82 85 -0.058778 -0.446987 -0.892607
-1.66411 -1.01896 1.4351 84 82 87 0.166307 0.186935 -0.968193
-1.6219 -1.03705 1.43347 132 93 96 0.647416 0.241009 -0.723027
-1.6611 -1.01896 1.43565 84 82 87 0.053372 0.249484 -0.966907
-1.63396 -1.07624 1.4357 80 75 79 -0.207207 -0.335817 -0.918854
-1.63999 -1.03102 1.4346 112 70 80 0.156684 0.47591 -0.865424
-1.63095 -1.07624 1.43516 80 75 79 -0.044611 -0.215821 -0.975413
-1.63698 -1.03102 1.43465 110 67 79 0.049658 0.414708 -0.908599
-1.63396 -1.07323 1.43448 80 75 79 -0.054313 -0.380188 -0.923313
-1.63095 -1.03403 1.43306 116 77 83 0.001359 0.569351 -0.822094
-1.63396 -1.03102 1.43522 110 68 77 0.040825 0.388499 -0.920544
-1.63095 -1.07323 1.43449 80 75 79 -0.189361 -0.260201 -0.946804
-1.63095 -1.03102 1.43514 112 75 79 0.039599 0.482012 -0.875269
-1.63698 -1.028 1.43559 110 66 78 -0.008295 0.231079 -0.9729
-1.62793 -1.08529 1.43543 117 98 96 0.200661 0.156645 -0.967056
-1.62793 -1.08228 1.4357 117 98 96 0.081131 0.063349 -0.994688
-1.63396 -1.028 1.43568 114 73 82 0.010025 0.139231 -0.990209
-1.63095 -1.028 1.43577 114 73 82 0.035152 0.137205 -0.989919
-1.63396 -1.02499 1.43598 114 73 82 -0.001067 0.09496 -0.99548
-1.62492 -1.08529 1.43603 117 98 96 0.16973 0.045651 -0.984433
-1.62492 -1.08228 1.43585 117 98 96 0.097694 0.007515 -0.995188
-1.62793 -1.07926 1.43589 117 98 96 0.223046 -0.025048 -0.974486
-1.62492 -1.03403 1.43362 122 84 90 0.299214 0.520855 -0.799488
-1.62793 -1.07624 1.43565 89 78 80 0.218903 -0.389324 -0.894711
-1.62793 -1.03102 1.43541 114 74 81 0.072076 0.414775 -0.907065
-1.62492 -1.03102 1.43538 123 85 90 0.13737 0.46995 -0.871938
-1.62793 -1.07323 1.43327 124 101 99 0.132718 -0.337951 -0.931759
-1.6219 -1.03403 1.43593 128 89 93 0.54005 0.53332 -0.651088
-1.62492 -1.07323 1.43547 134 107 104 0.5233 -0.310163 -0.793698
-1.63999 -1.07021 1.43405 131 94 98 -0.056081 -0.252988 -0.965842
-1.63698 -1.07021 1.43339 131 94 98 -0.124374 -0.300905 -0.945509
-1.63999 -1.0672 1.4332 131 94 98 0.001213 -0.28256 -0.959249
-1.62793 -1.028 1.4359 124 85 91 0.07232 0.155311 -0.985215
-1.63396 -1.07021 1.43317 143 109 108 0.003817 -0.367656 -0.929954
-1.62793 -1.07021 1.43329 142 109 104 0.256443 -0.072006 -0.963873
-1.6219 -1.06418 1.43534 142 109 105 0.263417 -0.189715 -0.945844
-1.66713 -1.01041 1.43607 91 88 91 0.385869 0.563205 -0.730688
-1.67118 -1.0069 1.43607 91 88 91 0.483731 0.470523 -0.737979
-1.65507 -1.01608 1.43607 86 82 87 0.198525 0.349919 -0.915502
-1.66001 -1.01293 1.43607 86 82 87 0.149673 0.463552 -0.873337
-1.67316 -1.00474 1.43607 91 88 91 0.605037 0.497175 -0.62189
-1.67594 -1.00087 1.43607 91 88 91 0.691265 0.438078 -0.574666
-1.64904 -1.01902 1.43607 106 81 89 0.179787 0.313583 -0.932385
-1.64916 -1.01896 1.43607 106 81 89 0.206192 0.440568 -0.873719
-1.6611 -1.01251 1.43607 92 79 87 0.247369 0.72635 -0.641268
-1.62356 -1.09132 1.43607 95 69 72 0.466065 0.088175 -0.880346
-1.65507 -1.01896 1.43519 86 82 87 0.055903 0.336716 -0.939945
-1.66713 -1.01293 1.43516 86 82 87 0.320882 0.168081 -0.932086
-1.67316 -1.01293 1.43188 93 92 92 0.531715 0.299982 -0.792017
-1.6611 -1.01293 1.43588 86 82 87 0.139719 0.073969 -0.987425
-1.67316 -1.0069 1.43447 91 88 91 0.639515 0.34838 -0.685311
-1.63698 -1.09132 1.43165 95 69 72 0.240476 0.443141 -0.863596
-1.63095 -1.09735 1.43155 95 69 72 0.388249 0.296897 -0.872419
-1.63095 -1.09132 1.43344 95 69 72 0.279008 0.281899 -0.91798
-1.62492 -1.09132 1.43548 95 69 72 0.308227 0.139856 -0.940976
-1.61884 -1.08529 1.43908 95 82 82 0.774326 0.018072 -0.632529
-1.61889 -1.03364 1.43908 117 75 82 0.378468 0.369124 -0.848828
-1.62033 -1.03102 1.43908 117 75 82 0.590085 0.187546 -0.785255
-1.61889 -1.08462 1.43908 95 82 82 0.641614 0.01531 -0.766875
-1.62048 -1.028 1.43908 118 76 87 0.720022 0.282581 -0.633811
-1.6219 -1.02588 1.43908 118 76 87 0.635053 0.467493 -0.614946
-1.61919 -1.08228 1.43908 77 75 75 0.412208 0.247325 -0.876878
-1.6219 -1.07941 1.43908 76 75 75 0.444275 0.36784 -0.816893
-1.62199 -1.07926 1.43908 76 75 75 0.525127 0.105025 -0.844519
-1.6219 -1.07919 1.43908 129 105 101 0.221474 -0.042359 -0.974246
-1.62154 -1.07624 1.43908 129 105 101 0.331272 -0.013855 -0.943433
-1.6207 -1.07323 1.43908 129 105 101 0.306009 -0.326907 -0.894142
-1.62267 -1.02499 1.43908 118 76 87 0.670031 0.233805 -0.704552
-1.60769 -1.05815 1.43908 136 100 98 0.606058 -0.070205 -0.792316
-1.60702 -1.05514 1.43908 135 99 97 0.556804 -0.134401 -0.819698
-1.63698 -1.01779 1.43908 116 68 84 0.104429 0.766307 -0.633931
-1.60683 -1.05444 1.43908 134 97 96 0.482386 -0.106723 -0.869433
-1.60635 -1.05212 1.43908 136 96 97 0.521355 -0.060103 -0.851221
-1.60616 -1.04911 1.43908 136 96 97 0.509555 -0.0231 -0.860128
-1.60683 -1.04412 1.43908 131 95 96 0.368812 0.122937 -0.921338
-1.60738 -1.04308 1.43908 131 95 96 0.334491 0.255616 -0.90707
-1.60972 -1.04006 1.43908 131 95 96 0.389457 0.289441 -0.874384
-1.60984 -1.03976 1.43908 131 95 97 0.405761 0.164885 -0.898983
-1.61063 -1.03705 1.43908 131 95 97 0.526679 0.331376 -0.782815
-1.60623 -1.04609 1.43908 132 94 97 0.465556 0.059053 -0.883046
-1.63396 -1.01827 1.43908 116 68 84 0.144548 0.806193 -0.573723
-1.63095 -1.01872 1.43908 116 68 84 0.102799 0.823836 -0.557429
-1.62793 -1.01924 1.43908 112 63 80 0.281621 0.587107 -0.758943
-1.62933 -1.01896 1.43908 112 63 80 0.113985 0.667625 -0.73572
-1.62492 -1.0206 1.43908 112 63 80 0.354154 0.589169 -0.726261
-1.6234 -1.02197 1.43908 118 72 86 0.613431 0.3799 -0.692371
-1.61587 -1.03303 1.43908 120 80 87 0.073274 0.452084 -0.888961
-1.61286 -1.03375 1.43908 120 80 87 0.465147 0.468434 -0.751138
-1.61259 -1.03403 1.43908 124 87 92 0.732518 0.494408 -0.467951
-1.63999 -1.028 1.43627 107 60 75 0.001069 0.099398 -0.995047
-1.63999 -1.02499 1.4364 107 61 77 0.017738 0.051127 -0.998535
-1.6219 -1.04609 1.437 131 92 96 0.210401 0.003487 -0.977609
-1.63698 -1.02499 1.43622 107 61 76 -0.036569 0.103057 -0.994003
-1.61889 -1.04911 1.43622 129 90 94 0.001221 0.294171 -0.955752
-1.64301 -1.07624 1.43634 99 83 88 0.044329 -0.01134 -0.998953
-1.61889 -1.04609 1.43712 129 90 94 0.056431 0.134744 -0.989272
-1.61889 -1.03705 1.43635 124 84 90 0.589103 0.342426 -0.731916
-1.61889 -1.03403 1.43892 124 84 90 0.411195 0.44022 -0.798201
-1.6219 -1.04308 1.43644 125 86 91 0.152871 -0.25124 -0.955777
-1.61889 -1.04308 1.43668 129 90 94 0.171645 -0.134058 -0.975995
-1.6219 -1.03102 1.4379 119 79 85 0.650011 0.227112 -0.725193
-1.63698 -1.08228 1.43643 111 91 92 0.001191 0.25121 -0.967932
-1.61889 -1.04006 1.43609 128 89 94 0.500748 0.071535 -0.862632
-1.63999 -1.07926 1.4365 111 91 92 0.257128 0.048444 -0.965162
-1.62492 -1.028 1.43661 117 75 85 0.305976 0.282552 -0.909144
-1.63698 -1.07926 1.43711 111 91 92 -0.023481 0.02144 -0.999494
-1.62793 -1.02499 1.43637 117 75 85 0.308263 0.223029 -0.924788
-1.61889 -1.08529 1.43904 95 82 82 0.551056 0.023361 -0.834141
-1.63396 -1.07926 1.43635 76 75 76 -0.269687 0.015864 -0.962817
-1.63999 -1.07624 1.43632 104 86 87 0.117926 -0.089904 -0.988944
-1.63698 -1.07624 1.43658 126 99 100 -0.040969 -0.269404 -0.962156
-1.62492 -1.07926 1.43664 108 91 90 0.523596 0.328248 -0.786194
-1.62492 -1.02499 1.43748 117 75 85 0.392704 0.283536 -0.874866
-1.6219 -1.028 1.43774 118 76 87 0.516325 0.241979 -0.821496
-1.6219 -1.08529 1.43705 77 75 75 0.478601 0.025615 -0.877659
-1.6219 -1.08228 1.43735 77 75 75 0.534269 0.25701 -0.805297
-1.64301 -1.02197 1.43617 115 66 82 0.14239 0.302408 -0.942483
-1.63999 -1.02197 1.43651 115 66 82 0.06795 0.223618 -0.972305
-1.63698 -1.02197 1.43659 115 66 82 0.016234 0.310937 -0.950292
-1.62492 -1.07624 1.43761 98 84 86 0.528486 -0.105121 -0.842409
-1.6219 -1.07624 1.43887 129 105 101 0.39462 -0.080009 -0.915355
-1.61587 -1.06418 1.43662 143 107 102 0.329113 -0.245023 -0.911948
-1.61286 -1.06117 1.43716 142 108 103 0.290419 -0.076154 -0.953865
-1.61587 -1.05815 1.43665 133 94 96 0.283217 0.003647 -0.959049
-1.64301 -1.01896 1.43716 115 66 82 0.201669 0.595769 -0.777425
-1.61286 -1.05815 1.43718 132 94 94 0.225143 -0.094333 -0.969748
-1.61286 -1.05514 1.43666 132 94 95 0.321408 -0.114308 -0.940016
-1.63999 -1.01896 1.43766 115 66 82 0.110308 0.622138 -0.775098
-1.60984 -1.05815 1.43779 132 97 95 0.376734 -0.040693 -0.925427
-1.60984 -1.05514 1.43768 135 99 97 0.371074 -0.073679 -0.925676
-1.61286 -1.05212 1.43638 134 97 96 0.382655 0.014172 -0.923783
-1.61286 -1.04911 1.43675 134 97 96 0.315572 0.119515 -0.941345
-1.60984 -1.05212 1.43752 134 97 96 0.358759 -0.016597 -0.933283
-1.60683 -1.05212 1.4388 134 97 96 0.392157 -0.030166 -0.919404
-1.60984 -1.04911 1.4376 134 97 96 0.308561 0.065844 -0.948923
-1.60683 -1.04911 1.43875 134 97 96 0.362127 0.027063 -0.931736
-1.61587 -1.04609 1.43708 131 95 96 0.046718 0.200047 -0.978672
-1.61286 -1.04609 1.43728 131 95 96 0.186935 0.166307 -0.968193
-1.63698 -1.01896 1.43796 115 66 82 0.07733 0.496318 -0.86469
-1.61587 -1.04308 1.43713 131 95 96 0.124929 0.03489 -0.991552
-1.61286 -1.04308 1.43766 131 95 96 0.188947 0.118874 -0.974766
-1.63396 -1.02197 1.43657 115 66 82 0.035675 0.400356 -0.915665
-1.60984 -1.04609 1.4379 131 95 96 0.268977 0.102653 -0.957661
-1.60683 -1.04609 1.43882 131 95 96 0.310947 0.063221 -0.948322
-1.63095 -1.02197 1.43673 115 66 82 0.077956 0.414398 -0.906751
-1.60984 -1.04308 1.43834 131 95 96 0.240831 0.163658 -0.95667
-1.61587 -1.04006 1.43757 131 95 95 0.250167 0.146924 -0.95699
-1.63396 -1.01896 1.43829 115 66 82 0.081096 0.530681 -0.843683
-1.63095 -1.01896 1.43877 115 66 82 0.105749 0.551924 -0.827162
-1.61286 -1.04006 1.43798 131 95 95 0.190138 0.144199 -0.97111
-1.62793 -1.02197 1.43707 112 63 80 0.227348 0.414575 -0.881158
-1.61587 -1.03705 1.43865 127 90 89 0.247796 0.247796 -0.936586
-1.62492 -1.02197 1.43849 112 63 80 0.345104 0.360442 -0.866594
-1.61286 -1.03705 1.43827 135 99 101 0.076304 0.139694 -0.98725
-1.60984 -1.04006 1.43903 131 95 96 0.27997 0.176176 -0.943705
-1.61587 -1.03403 1.43881 120 80 87 -0.02379 0.146138 -0.988978
-1.61286 -1.03403 1.43898 120 82 87 0.180501 0.231309 -0.955989
-1.6164 -1.08529 1.4421 95 82 82 0.728948 0.035386 -0.683654
-1.61889 -1.02714 1.4421 118 76 86 0.46746 0.530675 -0.707012
-1.61587 -1.0829 1.4421 95 82 82 0.7264 -0.142874 -0.672258
-1.62057 -1.02499 1.4421 118 76 86 0.731072 0.41752 -0.53964
-1.61566 -1.08228 1.4421 95 82 82 0.687877 -0.30447 -0.65888
-1.61441 -1.07926 1.4421 95 82 82 0.584351 -0.232182 -0.777577
-1.63396 -1.01648 1.4421 116 68 84 0.118691 0.819114 -0.561217
-1.61286 -1.07645 1.4421 100 87 87 0.574964 -0.309103 -0.757543
-1.61274 -1.07624 1.4421 95 82 82 0.572058 -0.445305 -0.688805
-1.61034 -1.07323 1.4421 95 82 82 0.563063 -0.414454 -0.714974
-1.60984 -1.07176 1.4421 129 109 107 0.568585 -0.291459 -0.769261
-1.63549 -1.01594 1.4421 116 68 84 0.205894 0.753914 -0.623876
-1.63095 -1.01665 1.4421 116 68 84 0.10922 0.822791 -0.557751
-1.60622 -1.06418 1.4421 142 107 104 0.574267 -0.276851 -0.770436
-1.63698 -1.01539 1.4421 116 68 84 0.17216 0.745009 -0.644455
-1.60445 -1.06117 1.4421 142 106 104 0.559169 -0.333568 -0.758988
-1.60381 -1.06024 1.4421 136 96 97 0.393754 -0.374929 -0.839277
-1.6008 -1.05869 1.4421 136 96 97 0.445171 -0.591894 -0.671925
-1.62167 -1.02197 1.4421 117 72 85 0.827708 0.30511 -0.470964
-1.6008 -1.05804 1.4421 136 96 97 0.284793 0.220258 -0.932941
-1.6219 -1.02135 1.4421 118 71 87 0.710072 0.543779 -0.447329
-1.60219 -1.05514 1.4421 136 96 97 0.437527 0.078672 -0.895757
-1.60046 -1.05815 1.4421 137 99 100 0.614524 0.142043 -0.776005
-1.60222 -1.05212 1.4421 136 96 97 0.630383 -0.046748 -0.774875
-1.60195 -1.04911 1.4421 136 96 97 0.642326 -0.049848 -0.764809
-1.62402 -1.01896 1.4421 118 71 87 0.561339 0.722662 -0.403308
-1.60169 -1.04609 1.4421 132 94 97 0.650303 0.020978 -0.759386
-1.62793 -1.01709 1.4421 114 66 82 0.278282 0.831738 -0.480387
-1.62492 -1.01857 1.4421 114 66 82 0.368542 0.842157 -0.393634
-1.60984 -1.03491 1.4421 126 88 92 0.383896 0.677172 -0.627744
-1.61087 -1.03403 1.4421 126 88 92 0.722474 0.35716 -0.592004
-1.60683 -1.03606 1.4421 128 90 93 0.369577 0.652098 -0.661953
-1.61128 -1.03102 1.4421 126 88 92 0.593252 0.239492 -0.768567
-1.61587 -1.02857 1.4421 117 76 84 0.263949 0.589539 -0.763397
-1.61716 -1.028 1.4421 117 76 84 0.257656 0.535611 -0.804198
-1.61286 -1.02985 1.4421 121 80 88 0.253389 0.590193 -0.766464
-1.60201 -1.04308 1.4421 132 94 97 0.630757 0.240663 -0.737718
-1.60607 -1.03705 1.4421 122 83 88 0.507271 0.380858 -0.773061
-1.60378 -1.04006 1.4421 131 93 96 0.573533 0.370917 -0.730397
-1.60381 -1.04004 1.4421 131 93 96 0.501167 0.381147 -0.77689
-1.66411 -1.0071 1.4421 90 79 87 0.338284 0.752641 -0.564885
-1.66463 -1.0069 1.4421 90 79 87 0.420134 0.835547 -0.354045
-1.6611 -1.00811 1.4421 90 79 87 0.228817 0.850106 -0.474302
-1.65808 -1.00904 1.4421 92 79 87 0.236439 0.808221 -0.539329
-1.65507 -1.0099 1.4421 92 79 87 0.246323 0.846065 -0.472756
-1.66713 -1.00558 1.4421 90 79 87 0.605741 0.722666 -0.332914
-1.65206 -1.0108 1.4421 92 79 87 0.266474 0.818123 -0.509574
-1.65503 -1.00991 1.4421 92 79 87 0.227824 0.909844 -0.346815
-1.64904 -1.01173 1.4421 92 79 87 0.214069 0.790055 -0.574445
-1.64602 -1.01285 1.4421 92 79 87 0.254805 0.729596 -0.634637
-1.64588 -1.01293 1.4421 92 79 87 0.311614 0.689425 -0.653904
-1.61889 -1.08228 1.43927 77 75 75 0.649575 0.035226 -0.759481
-1.61889 -1.03102 1.4397 118 78 84 0.256311 0.400205 -0.879852
-1.6219 -1.07926 1.43913 77 75 75 0.183394 -0.001139 -0.983039
-1.61889 -1.028 1.44115 118 76 87 0.614951 0.402785 -0.677938
-1.6219 -1.02499 1.43991 118 76 87 0.787561 0.282512 -0.547663
-1.61889 -1.07926 1.43966 77 73 74 0.366362 0.040417 -0.929594
-1.61889 -1.07624 1.44012 97 83 82 0.276575 -0.046304 -0.959876
-1.61587 -1.08228 1.44176 95 82 82 0.547766 -0.118318 -0.828223
-1.63698 -1.01594 1.44138 116 68 84 0.126643 0.740487 -0.660031
-1.61587 -1.07926 1.44081 95 82 82 0.425757 -0.092918 -0.900054
-1.62793 -1.01896 1.43933 112 63 80 0.276789 0.811601 -0.514483
-1.61587 -1.07624 1.44069 100 87 87 0.318242 -0.186459 -0.929492
-1.62492 -1.01896 1.44095 112 63 80 0.492141 0.699006 -0.518833
-1.61286 -1.07624 1.44202 100 87 87 0.306525 -0.330449 -0.892662
-1.6219 -1.02197 1.44109 118 72 86 0.76089 0.410717 -0.502351
-1.61587 -1.07323 1.4399 135 110 107 0.223807 -0.31504 -0.922312
-1.61286 -1.07323 1.44059 92 78 81 0.364072 -0.345638 -0.864862
-1.61587 -1.03102 1.44014 117 77 84 0.155154 0.518657 -0.840786
-1.61286 -1.03102 1.44094 119 79 86 0.447614 0.467289 -0.762419
-1.60984 -1.03705 1.43976 126 88 92 0.468502 0.429324 -0.772131
-1.60984 -1.07021 1.44182 129 109 107 0.577904 -0.21421 -0.78749
-1.60683 -1.03705 1.44164 128 90 93 0.42615 0.481664 -0.765765
-1.60683 -1.05815 1.44034 137 99 99 0.520215 -0.145896 -0.841481
-1.60683 -1.05514 1.43919 135 99 97 0.528458 -0.271286 -0.804448
-1.60381 -1.05815 1.44129 136 96 97 0.292396 -0.08447 -0.95256
-1.6008 -1.05815 1.44176 136 96 97 0.196707 -0.270988 -0.942269
-1.60381 -1.05514 1.44119 136 96 97 0.506949 -0.126374 -0.852662
-1.60381 -1.05212 1.44068 136 96 97 0.570146 -0.084732 -0.817162
-1.60381 -1.04911 1.44053 136 96 97 0.596579 -0.040708 -0.801521
-1.60683 -1.04308 1.43927 131 95 96 0.416761 0.320704 -0.850564
-1.60683 -1.04006 1.44037 131 95 96 0.443629 0.306649 -0.842116
-1.60381 -1.04609 1.44042 132 94 97 0.545951 0.023378 -0.837491
-1.60381 -1.04308 1.44066 132 94 97 0.514515 0.197658 -0.834389
-1.60381 -1.04006 1.44208 131 93 96 0.429456 0.350801 -0.832169
-1.64301 -1.01419 1.4421 106 81 89 0.17248 0.721974 -0.670078
-1.67156 -1.00087 1.4421 91 88 91 0.710268 0.517315 -0.477393
-1.67316 -0.997811 1.4421 91 88 91 0.706061 0.415038 -0.573778
-1.67496 -0.994836 1.4421 91 88 91 0.725185 0.399592 -0.560744
-1.65507 -1.01293 1.43731 106 81 89 0.269438 0.696713 -0.664827
-1.66713 -1.0069 1.4393 91 88 91 0.578802 0.612551 -0.538303
-1.64904 -1.01896 1.4361 106 81 89 0.141753 0.589395 -0.795311
-1.64904 -1.01293 1.44059 106 81 89 0.275588 0.61649 -0.737558
-1.67316 -1.00087 1.43948 91 88 91 0.639704 0.545183 -0.541807
-1.6138 -1.08529 1.44511 76 73 73 0.739807 0.029592 -0.672168
-1.60683 -1.0338 1.44511 121 83 89 0.525285 0.277539 -0.804392
-1.61301 -1.08228 1.44511 76 73 73 0.702918 -0.269372 -0.658289
-1.6008 -1.03898 1.44511 134 95 99 0.605677 0.387832 -0.694796
-1.61286 -1.08223 1.44511 76 73 73 0.602392 -0.375879 -0.704158
-1.60814 -1.03102 1.44511 121 83 89 0.639026 0.205788 -0.741146
-1.61114 -1.07926 1.44511 95 82 82 0.697574 -0.336592 -0.632532
-1.60854 -1.028 1.44511 117 75 85 0.691333 0.33672 -0.63928
-1.60204 -1.03705 1.44511 134 95 99 0.579607 0.449321 -0.679828
-1.60984 -1.07639 1.44511 96 81 82 0.64684 -0.358628 -0.673041
-1.59899 -1.04308 1.44511 130 91 95 0.663896 0.182456 -0.725226
-1.60979 -1.07624 1.44511 96 81 82 0.603598 -0.47918 -0.637225
-1.60736 -1.07323 1.44511 96 81 82 0.613549 -0.443026 -0.653672
-1.60015 -1.04006 1.44511 130 91 95 0.657007 0.290754 -0.69556
-1.60984 -1.02672 1.44511 117 75 85 0.329446 0.55122 -0.766565
-1.61284 -1.02499 1.44511 117 75 85 0.355889 0.467603 -0.809129
-1.63396 -1.01327 1.44511 111 61 75 0.086029 0.686771 -0.721765
-1.63609 -1.01293 1.44511 111 61 75 0.15926 0.674959 -0.720462
-1.63095 -1.01331 1.44511 111 61 75 0.233667 0.657089 -0.716682
-1.60381 -1.03492 1.44511 124 85 90 0.431876 0.605293 -0.668658
-1.61889 -1.02262 1.44511 113 64 81 0.296772 0.54752 -0.782399
-1.61962 -1.02197 1.44511 113 64 81 0.652898 0.435822 -0.619502
-1.62185 -1.01896 1.44511 106 54 75 0.484903 0.558729 -0.672824
-1.6008 -1.06206 1.44511 141 103 101 0.525302 -0.30312 -0.795095
-1.62492 -1.01744 1.44511 111 60 79 0.411908 0.806186 -0.42473
-1.62729 -1.01594 1.44511 111 60 79 0.479875 0.747021 -0.460086
-1.62793 -1.01541 1.44511 121 72 89 0.479655 0.69692 -0.533136
-1.59778 -1.05954 1.44511 136 97 97 0.639616 -0.555234 -0.531607
-1.6219 -1.01892 1.44511 95 44 64 0.317678 0.743398 -0.588591
-1.59629 -1.05815 1.44511 136 97 97 0.945148 0.001242 -0.326641
-1.59778 -1.0581 1.44511 134 93 95 0.848868 0.426762 -0.311924
-1.6611 -1.00735 1.44511 90 79 87 0.001232 0.950151 -0.311788
-1.59791 -1.05514 1.44511 134 93 95 0.677717 0.14943 -0.71998
-1.66269 -1.0069 1.44511 90 79 87 0.330719 0.890396 -0.312761
-1.65903 -1.0069 1.44511 92 79 87 -0.006277 0.940324 -0.340224
-1.59846 -1.05212 1.44511 137 93 98 0.659084 0.089144 -0.746767
-1.65507 -1.0089 1.44511 92 79 87 0.359027 0.880146 -0.310551
-1.59886 -1.04911 1.44511 137 93 97 0.739797 0.035363 -0.6719
-1.65782 -1.0069 1.44511 92 79 87 0.585071 0.8089 -0.058082
-1.59876 -1.04609 1.44511 132 94 97 0.712607 -0.012551 -0.701451
-1.66713 -1.00402 1.44511 90 79 87 0.641578 0.677677 -0.359349
-1.6065 -1.03403 1.44511 124 85 90 0.270881 0.600373 -0.752447
-1.66411 -1.00629 1.44511 90 79 87 0.515637 0.774263 -0.366926
-1.61587 -1.024 1.44511 103 54 71 0.204857 0.523524 -0.827016
-1.61286 -1.02497 1.44511 106 59 74 0.090962 0.460409 -0.883034
-1.65808 -1.00671 1.44511 88 79 87 0.093639 0.994772 -0.04076
-1.65206 -1.00946 1.44511 92 79 87 0.025648 0.878791 -0.476518
-1.64904 -1.00964 1.44511 92 79 87 0.06724 0.799732 -0.59658
-1.64602 -1.01003 1.44511 92 79 87 0.237764 0.666054 -0.706994
-1.64674 -1.00991 1.44511 92 79 87 0.110492 0.764603 -0.63496
-1.64301 -1.01075 1.44511 92 79 87 0.177841 0.588244 -0.788886
-1.63698 -1.01269 1.44511 115 71 87 0.187656 0.593482 -0.782664
-1.6008 -1.04308 1.44335 139 98 102 0.694645 0.162641 -0.700725
-1.60984 -1.03403 1.44299 122 84 91 0.569505 0.316035 -0.758805
-1.6008 -1.04006 1.44445 139 98 102 0.617632 0.340594 -0.708891
-1.60683 -1.03403 1.44495 122 84 89 0.335075 0.736517 -0.587595
-1.60381 -1.03705 1.44381 130 93 96 0.55283 0.417511 -0.721155
-1.60984 -1.03102 1.44369 121 83 89 0.671533 0.120608 -0.731093
-1.61587 -1.08529 1.44272 76 73 73 0.713023 0.111178 -0.69227
-1.61587 -1.028 1.44243 114 70 81 0.274422 0.531594 -0.801312
-1.61286 -1.07926 1.44353 76 73 73 0.659218 -0.336934 -0.67224
-1.61286 -1.028 1.44358 117 75 83 0.228841 0.526796 -0.818607
-1.61889 -1.02499 1.44341 113 68 80 0.371572 0.517604 -0.770727
-1.60984 -1.07624 1.44504 96 81 82 0.613672 -0.492619 -0.617035
-1.61587 -1.02499 1.44447 113 68 80 0.249657 0.519473 -0.817202
-1.60984 -1.07323 1.44251 97 80 81 0.646523 -0.420489 -0.636551
-1.61286 -1.02499 1.44511 113 68 80 0.18178 0.468491 -0.864565
-1.60984 -1.028 1.44411 117 75 85 0.414637 0.411435 -0.811663
-1.63396 -1.01594 1.44264 111 61 75 0.126785 0.67867 -0.723417
-1.63095 -1.01594 1.4429 111 61 75 0.169563 0.676726 -0.716443
-1.63698 -1.01293 1.4449 111 61 75 0.149599 0.735906 -0.660351
-1.60381 -1.06117 1.44256 141 105 102 0.551802 -0.326576 -0.767374
-1.6219 -1.01896 1.44504 108 57 76 0.620521 0.663774 -0.417562
-1.6008 -1.06117 1.44467 141 103 101 0.426963 -0.57316 -0.699421
-1.6008 -1.05514 1.44274 132 92 95 0.581118 0.180556 -0.793537
-1.59778 -1.05815 1.44441 136 97 97 0.667451 0.061721 -0.742091
-1.6008 -1.05212 1.44332 133 90 95 0.607086 0.029308 -0.794096
-1.62793 -1.01594 1.44434 112 62 80 0.340968 0.813566 -0.471012
-1.66411 -1.0069 1.44288 90 79 87 0.378277 0.896384 -0.231088
-1.65808 -1.0069 1.44482 92 79 87 0.371414 0.734646 -0.567756
-1.6008 -1.04911 1.44311 133 90 95 0.687126 -0.018193 -0.72631
-1.65206 -1.00991 1.44404 92 79 87 0.191495 0.88731 -0.419535
-1.64904 -1.00991 1.4447 92 79 87 0.105654 0.835104 -0.539851
-1.64301 -1.01293 1.44351 92 79 87 0.216392 0.658515 -0.720786
-1.6008 -1.04609 1.44293 132 94 97 0.710961 0.032509 -0.70248
-1.59527 -1.04308 1.44813 130 91 95 0.632504 0.104194 -0.767517
-1.60683 -1.02743 1.44813 117 75 85 0.723856 0.435639 -0.535024
-1.6083 -1.02499 1.44813 117 75 85 0.707028 0.412295 -0.574564
-1.59666 -1.04006 1.44813 130 91 95 0.574134 0.305458 -0.759648
-1.6008 -1.03455 1.44813 123 83 89 0.509574 0.473057 -0.718715
-1.60848 -1.07926 1.44813 95 82 82 0.420145 -0.251485 -0.871914
-1.60683 -1.07745 1.44813 96 81 82 0.484006 -0.346632 -0.803483
-1.59778 -1.03841 1.44813 130 91 95 0.556948 0.334169 -0.760355
-1.59857 -1.03705 1.44813 130 91 95 0.517218 0.4379 -0.735342
-1.60589 -1.07624 1.44813 133 109 104 0.445815 -0.452347 -0.772419
-1.60381 -1.07414 1.44813 133 109 104 0.476152 -0.459676 -0.749651
-1.62793 -1.01369 1.44813 112 62 80 0.467548 0.741798 -0.480765
-1.60309 -1.07323 1.44813 133 109 104 0.544786 -0.332657 -0.769771
-1.62895 -1.01293 1.44813 112 62 80 0.534714 0.619054 -0.575198
-1.60134 -1.03403 1.44813 123 83 89 0.554237 0.534022 -0.638468
-1.62492 -1.0153 1.44813 112 62 80 0.293788 0.682294 -0.669451
-1.6219 -1.01632 1.44813 95 44 63 0.279782 0.6411 -0.714642
-1.62325 -1.01594 1.44813 95 44 63 0.251257 0.700043 -0.668438
-1.60381 -1.03145 1.44813 123 83 89 0.558114 0.541252 -0.628932
-1.61889 -1.01687 1.44813 92 42 60 0.173889 0.357675 -0.917514
-1.60428 -1.03102 1.44813 123 83 89 0.570951 0.477187 -0.668063
-1.60643 -1.028 1.44813 122 83 88 0.675449 0.507844 -0.534661
-1.65507 -1.008 1.44813 92 79 87 0.104543 0.899069 -0.425141
-1.65776 -1.0069 1.44813 92 79 87 0.409861 0.880828 -0.236974
-1.61587 -1.01914 1.44813 104 55 72 0.175442 0.535323 -0.826226
-1.61629 -1.01896 1.44813 104 55 72 0.259042 0.393803 -0.881939
-1.5965 -1.05815 1.44813 136 97 97 0.804026 -0.01517 -0.5944
-1.66411 -1.00474 1.44813 90 79 87 0.459335 0.769917 -0.442989
-1.59541 -1.05514 1.44813 136 97 97 0.718647 -0.162569 -0.676105
-1.66485 -1.00388 1.44813 90 79 87 0.65072 0.485938 -0.583462
-1.6611 -1.00631 1.44813 90 79 87 0.383499 0.860947 -0.334214
-1.59542 -1.05212 1.44813 137 93 96 0.681246 0.098582 -0.725387
-1.61286 -1.02007 1.44813 102 54 67 0.198237 0.59471 -0.779116
-1.5962 -1.04911 1.44813 137 93 97 0.631792 -0.026617 -0.774681
-1.60959 -1.02197 1.44813 113 69 78 0.729809 0.339711 -0.593275
-1.66646 -1.00087 1.44813 90 79 87 0.63204 0.344601 -0.694101
-1.59541 -1.04609 1.44813 132 94 97 0.598009 -0.094576 -0.79589
-1.60984 -1.02174 1.44813 112 66 76 0.500722 0.622109 -0.601878
-1.65808 -1.00674 1.44813 88 79 87 0.07456 0.97661 -0.201678
-1.65206 -1.00768 1.44813 92 79 87 -0.087738 0.824165 -0.559512
-1.64904 -1.00735 1.44813 92 79 87 -0.009648 0.789761 -0.613339
-1.64602 -1.00721 1.44813 92 79 87 0.029562 0.719354 -0.694015
-1.64301 -1.00721 1.44813 92 79 87 0.058848 0.664548 -0.744925
-1.66713 -0.999404 1.44813 92 79 87 0.658846 0.363104 -0.658846
-1.63095 -1.01138 1.44813 115 71 87 0.298008 0.668504 -0.681391
-1.63393 -1.00991 1.44813 115 71 87 0.311205 0.630472 -0.711095
-1.63698 -1.00868 1.44813 115 71 87 0.216268 0.627021 -0.74838
-1.63396 -1.00989 1.44813 115 71 87 0.267785 0.613212 -0.743143
-1.63999 -1.00775 1.44813 101 52 69 0.16192 0.628008 -0.761176
-1.6008 -1.03705 1.44627 134 95 99 0.583508 0.463128 -0.667106
-1.60683 -1.03102 1.44602 121 83 89 0.494368 0.406263 -0.768473
-1.59778 -1.04308 1.44591 130 91 95 0.627164 0.155658 -0.763175
-1.61286 -1.08228 1.44513 76 73 73 0.672467 -0.287283 -0.682097
-1.59778 -1.04006 1.44729 130 91 95 0.607663 0.325707 -0.724334
-1.60683 -1.028 1.44763 117 75 85 0.682885 0.319545 -0.656932
-1.60984 -1.02499 1.44673 114 70 81 0.487936 0.445221 -0.750797
-1.60984 -1.07926 1.44697 95 82 82 0.65803 -0.377666 -0.651433
-1.60381 -1.03403 1.44593 122 80 88 0.507076 0.510423 -0.694509
-1.60683 -1.07624 1.44767 96 81 82 0.554962 -0.432373 -0.710683
-1.60683 -1.07323 1.44557 96 82 84 0.471666 -0.494836 -0.729841
-1.63396 -1.01293 1.44546 111 61 75 0.186359 0.682289 -0.706931
-1.61889 -1.02197 1.44555 111 61 79 0.265139 0.491514 -0.829527
-1.63095 -1.01293 1.44567 111 61 75 0.359131 0.787511 -0.500851
-1.60381 -1.07323 1.44751 133 109 104 0.578691 -0.44194 -0.685424
-1.61587 -1.02197 1.44637 111 61 79 0.16495 0.512683 -0.842584
-1.61889 -1.01896 1.44723 104 53 73 0.347441 0.501148 -0.79255
-1.62492 -1.01594 1.44739 108 56 75 0.403563 0.756476 -0.514665
-1.61286 -1.02197 1.44647 104 56 71 0.274394 0.475927 -0.835585
-1.60984 -1.02197 1.44792 114 70 80 0.420292 0.360475 -0.832714
-1.6611 -1.0069 1.44579 90 79 87 0.062843 0.972215 -0.225495
-1.66713 -1.00388 1.44529 90 79 87 0.669054 0.498017 -0.551676
-1.66713 -1.00087 1.44749 90 79 87 0.706063 0.380188 -0.597438
-1.64602 -1.00991 1.44523 92 79 87 0.11753 0.703692 -0.700717
-1.64301 -1.00991 1.44574 92 79 87 0.126503 0.6474 -0.751579
-1.59778 -1.06117 1.44645 143 107 103 0.561221 -0.248563 -0.789461
-1.59778 -1.05514 1.44524 136 97 97 0.796799 -0.040753 -0.602869
-1.63698 -1.00991 1.44722 115 71 87 0.191264 0.601334 -0.775767
-1.59778 -1.05212 1.44573 137 93 97 0.697122 0.140027 -0.703145
-1.59778 -1.04911 1.44643 137 93 97 0.729462 0.070779 -0.68035
-1.63396 -1.00991 1.44811 115 71 87 0.216625 0.64364 -0.734031
-1.59778 -1.04609 1.44608 132 94 97 0.675362 -0.076977 -0.733458
-1.6699 -0.994836 1.44813 91 88 91 0.677031 0.405556 -0.614128
-1.67316 -0.988905 1.44813 91 88 91 0.707044 0.387309 -0.591676
-1.67323 -0.988806 1.44813 81 70 73 0.726434 0.375515 -0.575571
-1.67634 -0.982776 1.44813 81 70 73 0.740729 0.353271 -0.57142
-1.67316 -0.994836 1.44408 91 88 91 0.713064 0.386998 -0.584613
-1.59183 -1.04911 1.45114 134 93 94 0.643633 0.052804 -0.763511
-1.59208 -1.04609 1.45114 134 93 94 0.662655 -0.04115 -0.747793
-1.59175 -1.04536 1.45114 137 96 97 0.624318 -0.129632 -0.77034
-1.6008 -1.03105 1.45114 118 80 84 0.416091 0.598441 -0.684643
-1.59105 -1.04308 1.45114 135 94 95 0.714775 0.206215 -0.66826
-1.59175 -1.04091 1.45114 134 94 96 0.69024 0.300874 -0.658061
-1.59238 -1.04006 1.45114 134 94 96 0.709203 0.332693 -0.621567
-1.59403 -1.03705 1.45114 134 94 96 0.695788 0.34382 -0.630609
-1.61889 -1.0133 1.45114 100 54 70 0.092406 0.711377 -0.696709
-1.62112 -1.01293 1.45114 100 54 70 0.103636 0.597003 -0.795517
-1.6611 -1.00562 1.45114 85 74 82 0.280208 0.837527 -0.469077
-1.60085 -1.03102 1.45114 118 80 84 0.555487 0.609516 -0.565618
