ply
format ascii 1.0
element vertex 728
property float x
property float y
property float z
property uchar red
property uchar green
property uchar blue
property float nx
property float ny
property float nz
end_header
-0.432491 -1.03705 1.90643 178 89 90 0.246323 0.472756 -0.846065
-0.527412 -1.00129 1.90643 182 54 78 -0.793643 0.58582 -0.16415
-0.449019 -1.00942 1.90643 199 72 89 0.628642 0.744076 -0.226186
-0.527078 -1.00087 1.90643 187 58 78 -0.78372 0.582766 -0.214866
-0.451747 -1.0069 1.90643 199 72 89 0.702669 0.580322 -0.411682
-0.464094 -0.986213 1.90643 196 61 91 0.444455 0.574296 -0.687491
-0.525066 -0.997851 1.90643 191 57 82 -0.814434 0.500586 -0.293447
-0.465323 -0.985791 1.90643 196 61 91 0.111045 0.520615 -0.84654
-0.524397 -0.996937 1.90643 191 52 81 -0.335847 0.772929 -0.538319
-0.521382 -0.995981 1.90643 191 57 82 -0.4754 0.809293 -0.345023
-0.461079 -0.988605 1.90643 196 61 91 0.457362 0.60144 -0.65505
-0.519802 -0.994836 1.90643 192 48 79 -0.743128 0.550405 -0.380547
-0.460722 -0.988806 1.90643 179 55 77 0.435245 0.67538 -0.595335
-0.452034 -1.00576 1.90643 207 76 95 0.818867 0.166169 -0.549404
-0.518434 -0.991821 1.90643 197 51 85 -0.86101 0.420565 -0.285984
-0.452308 -1.00388 1.90643 207 76 95 0.793458 0.151492 -0.589469
-0.45286 -1.00087 1.90643 213 87 104 0.823027 0.078724 -0.562521
-0.518367 -0.991736 1.90643 196 50 83 -0.709167 0.601072 -0.368505
-0.446004 -1.01231 1.90643 191 76 86 0.775646 0.630822 -0.020888
-0.515888 -0.988806 1.90643 196 50 83 -0.700373 0.55065 -0.454161
-0.448326 -1.00991 1.90643 191 76 86 0.691144 0.722112 -0.02956
-0.452884 -0.997851 1.90643 206 101 104 0.833613 0.063473 -0.54869
-0.453459 -0.994836 1.90643 206 101 104 0.784626 0.399593 -0.474011
-0.455049 -0.992524 1.90643 205 95 103 0.65072 0.583462 -0.485938
-0.455953 -0.991821 1.90643 205 95 103 0.508903 0.660062 -0.552571
-0.458064 -0.990351 1.90643 205 95 103 0.439889 0.715443 -0.542807
-0.515352 -0.988111 1.90643 205 62 92 -0.610241 0.532481 -0.586575
-0.513279 -0.985791 1.90643 207 62 92 -0.594804 0.353623 -0.721913
-0.512336 -0.984747 1.90643 205 62 92 -0.294575 0.300437 -0.907173
-0.510084 -0.982776 1.90643 205 62 92 -0.240571 0.224075 -0.944413
-0.509321 -0.981929 1.90643 205 62 92 -0.174764 0.233463 -0.956532
-0.506306 -0.980065 1.90643 207 70 96 -0.105943 0.389376 -0.914966
-0.503291 -0.980551 1.90643 207 70 96 0.031683 0.530352 -0.847185
-0.50068 -0.979761 1.90643 212 78 103 -0.145387 0.347544 -0.926324
-0.500276 -0.979368 1.90643 212 78 103 -0.196876 0.442601 -0.87484
-0.452034 -1.02499 1.90635 212 128 118 0.73306 -0.032486 -0.679387
-0.533442 -1.03705 1.90637 158 91 84 -0.212967 0.436358 -0.874206
-0.497261 -0.991821 1.90441 186 58 81 0.439629 0.27113 -0.85628
-0.530427 -1.03705 1.90567 158 91 84 -0.196618 0.444977 -0.873692
-0.527412 -1.03705 1.90502 157 91 84 -0.225759 0.532914 -0.815497
-0.446004 -1.01293 1.90435 195 97 97 0.930581 -0.024523 -0.365263
-0.436958 -1.03705 1.90526 178 89 90 0.179077 0.53422 -0.82616
-0.433943 -1.03705 1.90603 178 89 90 0.251533 0.458857 -0.852163
-0.488215 -0.994836 1.90471 161 109 105 -0.1891 0.730266 -0.65647
-0.497261 -0.982776 1.90516 206 75 101 -0.146423 0.007824 -0.989191
-0.4852 -0.994836 1.90436 153 75 80 -0.152127 0.631102 -0.760636
-0.494246 -0.982776 1.90428 206 75 101 0.042294 0.07049 -0.996616
-0.452034 -1.0069 1.90596 199 72 89 0.640292 0.646945 -0.414111
-0.455049 -1.00087 1.90373 209 79 100 0.746347 0.023805 -0.665131
-0.491231 -0.982776 1.90467 181 92 102 0.466688 0.059196 -0.882439
-0.497261 -0.979761 1.90498 162 77 83 -0.160933 0.274532 -0.948015
-0.494246 -0.979761 1.9052 162 77 83 0.148946 0.449729 -0.880658
-0.455049 -0.997851 1.90367 214 100 110 0.754091 0.01812 -0.656519
-0.491231 -0.979761 1.90615 162 77 83 0.227627 0.41211 -0.882242
-0.455049 -0.994836 1.9039 211 99 108 0.763553 0.23578 -0.601161
-0.524397 -1.03705 1.90393 147 83 77 -0.420426 0.529243 -0.736983
-0.524397 -1.03403 1.90612 147 83 77 -0.668753 0.064718 -0.740662
-0.47917 -0.988806 1.90552 194 65 89 -0.483827 0.507104 -0.713271
-0.476155 -0.988806 1.90374 192 64 87 -0.406839 0.545197 -0.732969
-0.476155 -0.985791 1.90597 192 64 87 -0.322047 0.606873 -0.726629
-0.482185 -0.991821 1.90567 163 102 100 -0.420426 0.529243 -0.736983
-0.47314 -0.985791 1.90497 197 66 92 -0.064799 0.698384 -0.712784
-0.524397 -1.03102 1.90445 169 95 91 -0.600188 -0.446379 -0.663717
-0.458064 -0.991821 1.90452 205 95 103 0.364947 0.708619 -0.603881
-0.470125 -0.985791 1.90493 198 54 89 0.280961 0.573034 -0.769866
-0.527412 -1.028 1.90461 182 94 94 -0.606001 -0.582369 -0.541856
-0.461079 -0.988806 1.90619 205 95 103 0.289214 0.61518 -0.733422
-0.46711 -0.988806 1.90486 196 65 90 0.222446 0.526201 -0.82075
-0.530427 -1.02499 1.9043 182 94 94 -0.78032 -0.197763 -0.593288
-0.46711 -0.985791 1.90611 196 65 90 0.268872 0.459388 -0.846564
-0.464094 -0.988806 1.90471 196 61 91 0.185318 0.52582 -0.830163
-0.515352 -0.988806 1.90584 205 62 92 -0.474296 0.651948 -0.591614
-0.530427 -1.02197 1.90486 194 67 88 -0.554149 0.444317 -0.703919
-0.512336 -0.988806 1.90368 207 62 92 -0.448451 0.581819 -0.678512
-0.527412 -1.02197 1.9037 196 67 89 -0.240949 0.725997 -0.644106
-0.512336 -0.985791 1.906 207 62 92 -0.228238 0.572924 -0.787188
-0.509321 -0.985791 1.90527 204 62 92 -0.223494 0.442489 -0.868478
-0.452034 -1.028 1.90592 213 143 128 0.616885 0.336927 -0.71129
-0.509321 -0.982776 1.90625 205 62 92 -0.23417 0.293777 -0.926747
-0.506306 -0.985791 1.90447 209 75 101 -0.126169 0.37296 -0.919229
-0.503291 -0.985791 1.90464 209 75 102 0.048274 0.251271 -0.966712
-0.506306 -0.982776 1.90551 209 75 102 -0.239167 0.307909 -0.920864
-0.503291 -0.982776 1.90463 209 75 102 -0.016298 0.322197 -0.946532
-0.500276 -0.985791 1.90453 213 73 103 0.13143 0.240738 -0.96165
-0.500276 -0.982776 1.90517 216 71 106 -0.022745 0.228646 -0.973244
-0.500276 -0.979761 1.90633 212 78 103 -0.370739 0.321918 -0.871161
-0.524397 -1.01896 1.90494 194 73 90 -0.847654 0.045782 -0.52857
-0.527412 -1.01293 1.90517 195 70 90 -0.759949 -0.464505 -0.454657
-0.524397 -1.01594 1.90378 195 70 90 -0.815526 -0.179386 -0.550216
-0.524397 -0.997851 1.9055 191 57 82 -0.611549 0.703363 -0.362338
-0.518367 -0.991821 1.9062 197 51 85 -0.751459 0.528804 -0.394557
-0.530427 -1.01032 1.90944 181 54 76 -0.933019 -0.359825 -0.001263
-0.488469 -0.976745 1.90944 203 78 97 0.583601 0.184375 -0.790832
-0.530536 -1.00991 1.90944 181 54 76 -0.997999 -0.063217 0.001036
-0.489749 -0.97373 1.90944 203 78 97 0.458923 0.552377 -0.695895
-0.491231 -0.973391 1.90944 202 66 94 -0.001379 0.748548 -0.663079
-0.450983 -1.00087 1.90944 207 96 105 0.764283 0.082664 -0.639561
-0.4852 -0.986639 1.90944 162 82 89 0.001203 0.268202 -0.963362
-0.449019 -1.02683 1.90944 215 139 126 0.427218 0.482871 -0.764409
-0.45057 -1.02499 1.90944 215 139 126 0.771066 0.139241 -0.621345
-0.529367 -1.01293 1.90944 181 54 76 -0.912715 -0.256837 -0.317782
-0.530641 -1.0069 1.90944 181 54 76 -0.999857 0.016879 0.000993
-0.446004 -1.02877 1.90944 211 142 131 0.433423 0.519119 -0.736655
-0.530427 -1.00651 1.90944 181 54 77 -0.862174 0.506611 0.001337
-0.484166 -0.985791 1.90944 162 82 89 -0.317538 0.237076 -0.918131
-0.451236 -0.997851 1.90944 207 96 105 0.70116 0.092219 -0.707015
-0.483083 -0.982776 1.90944 172 66 81 -0.378367 0.162967 -0.911197
-0.451656 -0.994836 1.90944 207 96 105 0.71473 0.142946 -0.684636
-0.482185 -0.979905 1.90944 208 95 105 -0.220434 0.282211 -0.933684
-0.528868 -1.00388 1.90944 181 54 77 -0.899842 0.436168 0.006549
-0.47917 -0.980644 1.90944 206 86 101 0.066942 0.573991 -0.816121
-0.527541 -1.00087 1.90944 181 54 77 -0.923739 0.337059 -0.181927
-0.455049 -0.990648 1.90944 204 90 101 0.578292 0.681618 -0.448302
-0.476155 -0.981009 1.90944 206 69 94 0.070715 0.743225 -0.665294
-0.45742 -0.988806 1.90944 204 90 101 0.540704 0.703747 -0.460846
-0.452034 -0.994091 1.90944 192 76 92 0.636502 0.552085 -0.538579
-0.47314 -0.981122 1.90944 205 66 94 0.063571 0.834903 -0.546713
-0.527412 -1.00058 1.90944 178 55 81 -0.883711 0.339889 -0.321761
-0.453887 -0.991821 1.90944 192 76 92 0.680116 0.576511 -0.452854
-0.461079 -0.985917 1.90944 193 61 89 0.505795 0.653669 -0.562928
-0.526101 -0.997851 1.90944 194 52 85 -0.815712 0.426214 -0.391095
-0.461185 -0.985791 1.90944 193 61 89 0.624964 0.454062 -0.635017
-0.524397 -0.994962 1.90944 194 52 85 -0.785695 0.526463 -0.324839
-0.463494 -0.982776 1.90944 193 62 90 0.689089 0.568957 -0.448825
-0.518192 -0.988806 1.90944 217 66 101 -0.704371 0.474576 -0.527862
-0.524134 -0.994836 1.90944 194 52 85 -0.290194 0.687808 -0.665362
-0.515769 -0.985791 1.90944 217 66 101 -0.467948 0.02832 -0.883302
-0.517486 -0.982776 1.90944 217 66 101 -0.392399 -0.232478 -0.889931
-0.470125 -0.981389 1.90944 193 56 86 0.083922 0.843485 -0.530556
-0.521382 -0.993353 1.90944 201 57 92 -0.433001 0.565722 -0.701761
-0.46711 -0.981698 1.90944 193 56 86 0.131026 0.873988 -0.467951
-0.519428 -0.991821 1.90944 197 52 84 -0.698936 0.488755 -0.522117
-0.464094 -0.98214 1.90944 193 53 85 0.365041 0.864085 -0.346558
-0.518367 -0.989837 1.90944 202 53 87 -0.670636 0.42102 -0.610728
-0.518367 -0.982097 1.90944 212 66 100 -0.481341 -0.338369 -0.80859
-0.458064 -0.988367 1.90944 188 69 89 0.55469 0.694611 -0.458077
-0.533442 -1.03195 1.90944 169 88 87 -0.457156 0.496765 -0.737721
-0.519747 -0.979761 1.90944 212 66 100 -0.828279 0.191605 -0.526538
-0.533442 -1.02997 1.90944 191 79 89 -0.612448 -0.082528 -0.786192
-0.53376 -1.028 1.90944 191 79 89 -0.851545 0.063129 -0.520467
-0.533442 -1.02554 1.90944 188 71 87 -0.713253 -0.143254 -0.686111
-0.518367 -0.977053 1.90944 211 66 100 -0.700029 0.415384 -0.580875
-0.517955 -0.976745 1.90944 217 68 101 -0.366383 0.404123 -0.838122
-0.532777 -1.03102 1.90944 194 96 100 -0.500299 0.001334 -0.865851
-0.515352 -0.975418 1.90944 212 62 99 -0.355416 0.789635 -0.500156
-0.512336 -0.974815 1.90944 197 55 88 -0.085719 0.623281 -0.777286
-0.509321 -0.974451 1.90944 197 55 88 -0.020598 0.54791 -0.836284
-0.53302 -1.02499 1.90944 195 89 98 -0.888414 0.163237 -0.429039
-0.53279 -1.02197 1.90944 199 63 91 -0.861397 0.349798 -0.368289
-0.530427 -1.0191 1.90944 199 63 91 -0.6997 0.617768 -0.358863
-0.530256 -1.01896 1.90944 199 63 91 -0.563083 0.549555 -0.617193
-0.528804 -1.01594 1.90944 200 68 93 -0.763838 0.145564 -0.628778
-0.486917 -0.985791 1.90944 208 82 103 0.382583 0.166402 -0.908813
-0.487494 -0.982776 1.90944 208 82 103 0.490805 0.160654 -0.85633
-0.488163 -0.979761 1.90944 209 85 105 0.583603 0.125585 -0.802269
-0.488215 -0.979378 1.90944 209 85 105 0.602764 0.191719 -0.774544
-0.506306 -0.974588 1.90944 210 62 96 0.017978 0.598796 -0.8007
-0.503291 -0.974624 1.90944 210 62 96 0.111178 0.713023 -0.69227
-0.500276 -0.975524 1.90944 206 65 95 0.231612 0.829814 -0.507705
-0.497261 -0.976514 1.90944 206 65 95 -0.058378 0.787392 -0.613682
-0.494246 -0.975531 1.90944 205 63 94 -0.257812 0.61527 -0.744967
-0.492058 -0.97373 1.90944 205 63 94 -0.345946 0.586321 -0.732495
-0.447143 -1.028 1.90944 211 142 131 0.390146 0.530534 -0.752542
-0.449724 -1.02197 1.90944 164 93 87 0.727942 -0.329114 -0.601485
-0.449019 -1.02056 1.90944 164 93 87 0.710683 -0.432373 -0.554962
-0.447958 -1.01896 1.90944 208 121 115 0.818013 -0.397047 -0.416182
-0.446442 -1.01594 1.90944 186 110 101 0.952237 -0.301309 -0.049582
-0.446432 -1.01293 1.90944 186 110 101 0.98176 0.180128 -0.060838
-0.449019 -1.00855 1.90944 202 68 90 0.813757 0.529637 -0.23934
-0.449996 -1.0069 1.90944 202 68 90 0.83143 0.399149 -0.386528
-0.450583 -1.00388 1.90944 216 92 109 0.845769 0.081023 -0.527362
-0.447934 -1.00991 1.90944 195 69 85 0.819284 0.562254 -0.112451
-0.452034 -1.00087 1.90802 218 106 116 0.841029 0.130177 -0.525095
-0.530427 -1.00991 1.90719 181 54 76 -0.93333 -0.268878 -0.237908
-0.449019 -1.028 1.90845 216 146 131 0.490924 0.554593 -0.671878
-0.491231 -0.976745 1.90769 203 78 97 0.236926 0.403817 -0.883628
-0.530427 -1.0069 1.90712 181 54 76 -0.960739 0.261084 -0.093888
-0.491231 -0.97373 1.90928 203 78 97 0.001317 0.462431 -0.886654
-0.527412 -1.00087 1.90858 181 54 77 -0.859028 0.500502 -0.107558
-0.4852 -0.988806 1.9088 162 82 89 -0.097999 0.409938 -0.906833
-0.521382 -0.994836 1.90838 194 52 85 -0.357346 0.732641 -0.579259
-0.482185 -0.988806 1.90765 162 82 89 -0.38539 0.38539 -0.83842
-0.482185 -0.985791 1.90867 162 82 89 -0.449393 0.200225 -0.870607
-0.491231 -0.991821 1.90759 144 112 100 0.216835 0.149318 -0.964721
-0.482185 -0.982776 1.90893 172 66 81 -0.3465 0.198204 -0.916871
-0.452034 -0.997851 1.90831 218 106 116 0.861259 0.065606 -0.503913
-0.47917 -0.982776 1.90825 191 72 90 -0.130566 0.397314 -0.908347
-0.452034 -1.02197 1.90643 164 93 87 0.792878 0.001369 -0.609379
-0.491231 -0.988806 1.90669 144 111 100 0.425557 -0.276078 -0.86179
-0.452034 -0.994836 1.90897 189 79 90 0.865024 0.159539 -0.47569
-0.449019 -1.01896 1.90732 164 93 87 0.714341 -0.55523 -0.425953
-0.455049 -0.991821 1.9076 204 90 101 0.634138 0.644125 -0.427752
-0.446004 -1.01293 1.90849 186 110 101 0.959745 0.159738 0.231025
-0.488215 -0.991821 1.90731 144 111 100 -0.044542 0.444068 -0.894885
-0.4852 -0.991821 1.90678 144 111 100 -0.177136 0.567742 -0.803923
-0.458064 -0.988806 1.90873 204 90 101 0.502548 0.69622 -0.512565
-0.452034 -1.00388 1.90684 218 95 112 0.843257 0.148637 -0.51655
-0.488215 -0.988806 1.90817 144 111 100 0.361097 0.053836 -0.930973
-0.515352 -0.985791 1.90892 217 66 101 -0.711924 0.244675 -0.658254
-0.515352 -0.982776 1.90827 217 66 101 -0.500602 -0.00671 -0.865652
-0.476155 -0.982776 1.9079 202 62 90 -0.084671 0.566867 -0.819446
-0.512336 -0.982776 1.90703 213 66 100 -0.299677 0.115875 -0.946978
-0.47314 -0.982776 1.90772 203 61 90 0.004159 0.705713 -0.708486
-0.518367 -0.979761 1.90867 212 66 100 -0.285583 -0.021017 -0.958124
-0.515352 -0.979761 1.90804 212 66 100 -0.29988 0.008639 -0.953938
-0.515352 -0.976745 1.90821 217 68 101 -0.190448 0.331521 -0.924026
-0.533442 -1.028 1.90906 191 79 89 -0.443546 0.001308 -0.896251
-0.470125 -0.982776 1.90782 193 56 86 0.10489 0.701727 -0.704682
-0.530427 -1.03403 1.90711 166 88 87 -0.208857 0.295765 -0.932149
-0.46711 -0.982776 1.90825 193 56 86 0.120369 0.646427 -0.753421
-0.512336 -0.979761 1.90737 218 68 102 -0.16463 0.172288 -0.971192
-0.527412 -1.03403 1.90721 187 94 97 -0.102583 0.148443 -0.983586
-0.464094 -0.985791 1.90667 193 61 89 0.515267 0.481916 -0.708701
-0.509321 -0.979761 1.9069 218 68 102 -0.115273 0.29017 -0.950007
-0.530427 -1.03102 1.90815 194 96 100 -0.445057 0.084575 -0.8915
-0.464094 -0.982776 1.90876 193 61 89 0.353646 0.578545 -0.734997
-0.512336 -0.976745 1.90822 218 68 102 -0.054908 0.400425 -0.914683
-0.527412 -1.03102 1.90685 193 97 99 -0.26943 -0.03849 -0.96225
-0.509321 -0.976745 1.90804 218 68 102 -0.02809 0.450779 -0.892194
-0.530427 -1.028 1.9078 195 89 98 -0.564745 -0.248738 -0.786888
-0.506306 -0.979761 1.90656 207 76 100 -0.0013 0.4226 -0.906315
-0.527412 -1.01896 1.90693 199 63 91 -0.589778 0.40475 -0.698813
-0.503291 -0.979761 1.90682 207 76 100 -0.032774 0.386735 -0.921608
-0.527412 -1.01594 1.90773 200 68 93 -0.805344 -0.097222 -0.584781
-0.506306 -0.976745 1.9081 207 76 100 -0.001316 0.454044 -0.890978
-0.503291 -0.976745 1.90787 207 76 100 -0.039846 0.501505 -0.864237
-0.500276 -0.976745 1.90766 207 77 101 0.02104 0.705546 -0.708352
-0.497261 -0.976745 1.90891 205 75 99 -0.036622 0.882997 -0.467948
-0.488215 -0.985791 1.90829 208 82 103 0.682525 0.026738 -0.730373
-0.488215 -0.982776 1.9084 208 82 103 0.722688 0.095283 -0.684575
-0.494246 -0.976745 1.908 206 76 100 -0.032447 0.749114 -0.661646
-0.488215 -0.979761 1.90939 209 85 105 0.727076 0.17909 -0.662787
-0.449019 -0.993845 1.91246 192 76 92 0.617251 0.64067 -0.456665
-0.4852 -0.976025 1.91246 203 73 95 0.485823 0.653928 -0.579961
-0.451713 -0.991821 1.91246 192 76 92 0.520178 0.687438 -0.506797
-0.487551 -0.97373 1.91246 203 73 95 0.68461 0.655478 -0.318837
-0.452034 -0.991568 1.91246 192 76 92 0.60528 0.648873 -0.461086
-0.491231 -0.97092 1.91246 202 57 92 0.076749 0.745764 -0.661775
-0.442989 -1.02719 1.91246 207 133 123 0.426779 0.569592 -0.702442
-0.454912 -0.988806 1.91246 192 76 92 0.61082 0.644289 -0.460207
-0.488215 -0.972874 1.91246 202 57 92 0.577404 0.751108 -0.320065
-0.529924 -1.01293 1.91246 181 54 76 -0.990598 0.009984 -0.136443
-0.445687 -1.02499 1.91246 207 133 123 0.461142 0.531063 -0.710859
-0.447952 -1.00087 1.91246 212 98 105 0.812147 -0.015167 -0.583256
-0.529722 -1.00991 1.91246 181 54 76 -0.853223 0.060047 -0.518078
-0.47917 -0.97716 1.91246 206 83 100 0.251197 0.706195 -0.661959
-0.481132 -0.976745 1.91246 206 83 100 0.162547 0.721585 -0.672973
-0.530108 -1.0069 1.91246 181 54 76 -0.989745 0.058763 0.130199
-0.447839 -0.997851 1.91246 212 98 105 0.840096 -0.037368 -0.541149
-0.536694 -1.03102 1.91246 161 83 83 -0.369551 0.53886 -0.757009
-0.446004 -1.02445 1.91246 208 121 115 0.54993 0.22028 -0.805639
-0.5292 -1.00388 1.91246 181 54 77 -0.921197 0.30229 -0.244984
-0.44676 -1.02197 1.91246 208 121 115 0.700163 -0.123909 -0.703149
-0.446044 -1.01896 1.91246 208 121 115 0.799337 -0.187273 -0.570955
-0.476155 -0.978519 1.91246 206 66 97 0.354183 0.81478 -0.459008
-0.528415 -1.00087 1.91246 181 54 77 -0.848438 0.154932 -0.506112
-0.47314 -0.97966 1.91246 205 66 94 0.308242 0.885632 -0.347336
-0.446004 -1.01875 1.91246 186 110 101 0.844304 -0.167674 -0.508956
-0.447693 -0.994836 1.91246 212 98 105 0.845076 0.229922 -0.482683
-0.527765 -0.997851 1.91246 178 55 81 -0.677853 0.172906 -0.714576
-0.4456 -1.01594 1.91246 186 110 101 0.888176 -0.058847 -0.45572
-0.461079 -0.983487 1.91246 192 60 89 0.668566 0.671803 -0.318904
-0.536458 -1.03041 1.91246 188 71 87 -0.602938 0.171617 -0.779111
-0.445409 -1.01293 1.91246 186 110 101 0.920118 0.099805 -0.378711
-0.527412 -0.996954 1.91246 178 55 81 -0.723116 0.304385 -0.620043
-0.461778 -0.982776 1.91246 192 60 89 0.61689 0.778842 -0.113366
-0.535678 -1.028 1.91246 188 71 87 -0.774383 0.098079 -0.625069
-0.522942 -0.988806 1.91246 178 53 80 -0.477079 0.175766 -0.861105
-0.526467 -0.994836 1.91246 194 52 85 -0.726893 0.403829 -0.555471
-0.470125 -0.980123 1.91246 193 56 86 0.065765 0.919362 -0.387877
-0.472644 -0.979761 1.91246 193 56 86 0.116172 0.928009 -0.353983
-0.522709 -0.985791 1.91246 178 53 80 -0.608361 0.148711 -0.779604
-0.521679 -0.982776 1.91246 178 53 80 -0.705125 0.265815 -0.657374
-0.46711 -0.980129 1.91246 193 56 86 0.167627 0.901177 -0.399727
-0.446004 -1.01156 1.91246 195 69 85 0.850025 0.42269 -0.314308
-0.447127 -1.00991 1.91246 195 69 85 0.792171 0.404959 -0.456588
-0.464094 -0.981243 1.91246 193 53 85 0.38581 0.891354 -0.23799
-0.521382 -0.981896 1.91246 178 53 80 -0.807948 0.391975 -0.439972
-0.448736 -1.0069 1.91246 195 69 85 0.630034 0.09794 -0.770367
-0.482185 -0.97656 1.91246 200 61 91 0.088841 0.773357 -0.627715
-0.520531 -0.979761 1.91246 212 66 100 -0.833406 0.479558 -0.274698
-0.448289 -1.00388 1.91246 221 108 117 0.715358 -0.009723 -0.69869
-0.518564 -0.976745 1.91246 209 63 100 -0.77471 0.576711 -0.259284
-0.458064 -0.986357 1.91246 188 69 89 0.558834 0.711394 -0.426173
-0.524766 -0.991821 1.91246 207 61 98 -0.519069 0.252562 -0.816566
-0.458771 -0.985791 1.91246 188 69 89 0.58907 0.6562 -0.471591
-0.518367 -0.976531 1.91246 212 62 99 -0.639315 0.730422 -0.240332
-0.524397 -0.991213 1.91246 201 57 92 -0.473935 0.281253 -0.834436
-0.455049 -0.988712 1.91246 188 69 89 0.548768 0.742066 -0.384957
-0.515352 -0.97394 1.91246 212 62 99 -0.565893 0.769934 -0.294902
-0.515006 -0.97373 1.91246 197 55 88 -0.375041 0.790322 -0.484495
-0.512336 -0.972135 1.91246 197 55 88 -0.414764 0.749197 -0.516405
-0.509321 -0.970868 1.91246 197 55 88 -0.089014 0.666873 -0.739835
-0.506306 -0.970895 1.91246 210 62 96 0.168513 0.626989 -0.760584
-0.503291 -0.972515 1.91246 210 62 96 0.316035 0.569505 -0.758805
-0.500276 -0.974221 1.91246 206 65 95 0.096438 0.836274 -0.539764
-0.535614 -1.02499 1.91246 191 64 87 -0.724605 0.199305 -0.659715
-0.53191 -1.01896 1.91246 199 63 91 -0.763828 0.449792 -0.462876
-0.530758 -1.01594 1.91246 200 68 93 -0.682275 0.227425 -0.694823
-0.530427 -1.01493 1.91246 200 68 93 -0.831526 0.257634 -0.492128
-0.502011 -0.97373 1.91246 206 65 95 0.362787 0.687818 -0.628722
-0.497261 -0.973755 1.91246 206 65 95 -0.117182 0.731275 -0.671942
-0.497225 -0.97373 1.91246 205 67 97 -0.398002 0.525756 -0.751782
-0.494246 -0.970786 1.91246 205 61 92 -0.27012 0.473868 -0.838144
-0.530427 -1.00991 1.91131 181 54 76 -0.982235 -0.130234 0.135103
-0.488215 -0.976745 1.9097 203 68 94 0.571957 0.241562 -0.783909
-0.449019 -1.00087 1.91147 210 102 108 0.73429 -0.009716 -0.678767
-0.449019 -1.02499 1.91035 215 132 122 0.553441 0.220452 -0.803184
-0.530427 -1.0069 1.9115 181 54 76 -0.952479 0.294167 0.079049
-0.449019 -0.997851 1.91139 210 102 108 0.652295 0.038204 -0.757002
-0.488215 -0.97373 1.91099 203 68 94 0.649443 0.445762 -0.616052
-0.449019 -0.994836 1.91188 198 85 93 0.618504 0.188774 -0.76277
-0.4852 -0.976745 1.91191 203 73 95 0.130872 0.464524 -0.875837
-0.527412 -0.997851 1.91191 178 55 81 -0.87112 0.303595 -0.385978
-0.455049 -0.988806 1.91229 204 90 101 0.575612 0.685729 -0.445474
-0.452034 -0.991821 1.91216 192 76 92 0.666202 0.572229 -0.478256
-0.4852 -0.985791 1.90963 172 66 81 -0.121509 0.15342 -0.980662
-0.524397 -0.994836 1.90957 194 52 85 -0.715033 0.452909 -0.532542
-0.4852 -0.979761 1.91112 206 86 101 0.115157 0.211332 -0.970607
-0.482185 -0.979761 1.90949 206 86 101 -0.049265 0.581331 -0.812174
-0.446004 -1.028 1.90997 177 111 101 0.418272 0.550532 -0.72247
-0.521382 -0.988806 1.91178 178 53 80 -0.497128 0.148112 -0.854943
-0.47917 -0.979761 1.91001 206 86 101 0.182518 0.670256 -0.719336
-0.521382 -0.985791 1.91133 178 53 80 -0.491481 0.023017 -0.870584
-0.521382 -0.982776 1.9118 178 53 80 -0.663128 -0.058722 -0.746199
-0.482185 -0.976745 1.91228 206 86 101 0.098357 0.676757 -0.729606
-0.518367 -0.988806 1.90975 218 67 103 -0.448886 0.123978 -0.884947
-0.518367 -0.985791 1.91043 218 67 103 -0.317678 0.018835 -0.948012
-0.476155 -0.979761 1.91074 205 66 94 0.209643 0.740738 -0.638246
-0.47314 -0.979761 1.91214 203 57 90 0.155005 0.842932 -0.515207
-0.518367 -0.982776 1.90987 218 68 104 -0.414018 -0.119293 -0.902418
-0.461079 -0.985791 1.90958 193 61 89 0.632726 0.619299 -0.464894
-0.518367 -0.976745 1.91083 209 63 100 -0.710791 0.670352 -0.213082
-0.446004 -1.02499 1.91224 215 134 125 0.440307 0.502972 -0.74374
-0.536458 -1.03102 1.91219 161 83 83 -0.440604 0.553664 -0.706629
-0.533442 -1.03102 1.9099 192 87 94 -0.628214 0.07044 -0.774845
-0.512336 -0.97373 1.91056 197 55 88 -0.25405 0.736902 -0.626446
-0.449019 -1.02197 1.91027 164 93 87 0.705836 -0.142973 -0.693797
-0.509321 -0.97373 1.90999 197 55 88 -0.064638 0.653561 -0.754109
-0.533442 -1.02499 1.91006 191 64 87 -0.821406 0.192115 -0.537015
-0.446004 -1.01594 1.91122 186 110 101 0.924175 -0.166884 -0.343585
-0.446004 -1.01293 1.91112 186 110 101 0.926309 0.198797 -0.320049
-0.506306 -0.97373 1.91009 210 62 96 0.126787 0.64885 -0.750279
-0.503291 -0.97373 1.91097 210 62 96 0.260317 0.812127 -0.522193
-0.494246 -0.97373 1.91077 205 67 97 -0.300166 0.601937 -0.739981
-0.449019 -1.0069 1.91206 204 73 94 0.873564 0.26403 -0.40887
-0.449019 -1.00388 1.91174 218 95 112 0.794739 -0.064207 -0.603545
-0.530427 -1.01896 1.90968 199 63 91 -0.799726 0.357392 -0.4824
-0.530427 -1.01594 1.91185 200 68 93 -0.853455 0.19949 -0.481475
-0.524397 -0.991821 1.91218 207 61 98 -0.521975 0.515261 -0.679742
-0.521382 -0.991821 1.91037 201 57 92 -0.454766 0.365409 -0.812197
-0.447203 -0.994836 1.91547 202 85 95 0.86607 0.457631 -0.201238
-0.531027 -0.994836 1.91547 199 67 98 -0.430188 0.132038 -0.893031
-0.536458 -1.01435 1.91547 175 54 78 0.006348 0.359312 -0.933196
-0.449019 -0.991962 1.91547 202 85 95 0.800802 0.522812 -0.292206
-0.530427 -0.993338 1.91547 199 67 98 -0.498455 0.240792 -0.832803
-0.538637 -1.01293 1.91547 175 54 78 0.22174 0.246531 -0.943427
-0.497261 -0.968326 1.91547 207 58 94 -0.113897 0.50605 -0.854951
-0.533442 -1.01325 1.91547 191 63 88 -0.291628 0.277119 -0.91551
-0.496651 -0.9677 1.91547 207 58 94 -0.198577 0.467327 -0.861494
-0.533259 -1.01293 1.91547 200 68 93 -0.57704 0.134989 -0.805483
-0.491231 -0.968917 1.91547 207 58 94 0.43414 0.68032 -0.590497
-0.492692 -0.9677 1.91547 207 58 94 0.413093 0.661945 -0.625446
-0.494246 -0.967172 1.91547 207 58 94 0.126376 0.637826 -0.759741
-0.526058 -0.985791 1.91547 191 56 88 -0.656013 0.373221 -0.656013
-0.439973 -1.02538 1.91547 167 105 93 0.213595 0.703148 -0.678203
-0.489653 -0.970715 1.91547 204 64 94 0.680035 0.647419 -0.344094
-0.476155 -0.977194 1.91547 204 62 95 0.467737 0.806167 -0.362376
-0.47695 -0.976745 1.91547 204 62 95 0.481479 0.750976 -0.4519
-0.47314 -0.978948 1.91547 206 59 93 0.260897 0.873174 -0.411704
-0.440819 -1.02499 1.91547 167 105 93 0.420833 0.603804 -0.676993
-0.442989 -1.02281 1.91547 214 127 120 0.602625 0.481764 -0.636197
-0.443434 -1.02197 1.91547 214 127 120 0.759955 0.17514 -0.625935
-0.524397 -0.982906 1.91547 191 56 88 -0.685165 0.354847 -0.636108
-0.443987 -1.01896 1.91547 209 118 112 0.824631 -0.004089 -0.565656
-0.531692 -1.0069 1.91547 181 54 77 -0.699161 0.149497 -0.699161
-0.524305 -0.982776 1.91547 201 60 93 -0.70143 0.451514 -0.551481
-0.444011 -1.01594 1.91547 186 110 101 0.883928 0.042092 -0.465725
-0.522117 -0.979761 1.91547 178 53 80 -0.721216 0.515628 -0.462573
-0.461079 -0.983491 1.91547 190 50 84 0.536533 0.841923 -0.057436
-0.521382 -0.978738 1.91547 178 53 80 -0.727771 0.536339 -0.427421
-0.444448 -1.01293 1.91547 186 110 101 0.863059 0.237303 -0.445889
-0.531413 -1.00388 1.91547 181 54 77 -0.567003 0.081821 -0.819642
-0.462067 -0.982776 1.91547 190 50 84 0.619491 0.78259 0.06152
-0.519814 -0.976745 1.91547 213 66 100 -0.708408 0.582909 -0.397963
-0.530534 -1.00087 1.91547 181 54 77 -0.321372 -0.034297 -0.946332
-0.470125 -0.978954 1.91547 197 54 83 0.179165 0.934712 -0.306941
-0.46711 -0.979485 1.91547 197 54 83 0.202798 0.967488 -0.15113
-0.531718 -0.997851 1.91547 196 63 92 -0.400356 -0.035675 -0.915665
-0.464094 -0.980977 1.91547 193 56 86 0.54437 0.838844 0.001351
-0.466349 -0.979761 1.91547 193 56 86 0.49311 0.869958 -0.004009
-0.4852 -0.973997 1.91547 202 73 97 0.090857 0.814826 -0.572541
-0.482185 -0.974054 1.91547 202 73 97 0.107137 0.788116 -0.606131
-0.47917 -0.974792 1.91547 202 63 93 0.40188 0.821232 -0.405056
-0.455049 -0.987159 1.91547 188 65 87 0.594195 0.739121 -0.317226
-0.456815 -0.985791 1.91547 188 65 87 0.563983 0.760011 -0.322965
-0.458064 -0.984919 1.91547 188 71 89 0.419711 0.899781 -0.119316
-0.452656 -0.988806 1.91547 188 66 88 0.583442 0.73621 -0.342914
-0.518367 -0.975285 1.91547 191 52 84 -0.646916 0.676396 -0.352119
-0.445525 -1.00991 1.91547 189 63 79 0.800761 0.094464 -0.591488
-0.445215 -1.0069 1.91547 183 64 76 0.86469 0.07733 -0.496318
-0.445994 -1.00087 1.91547 183 71 81 0.941196 0.13407 -0.310121
-0.449164 -0.991821 1.91547 198 70 90 0.56765 0.690835 -0.447794
-0.452034 -0.989312 1.91547 198 71 90 0.627904 0.735455 -0.254641
-0.446004 -1.00077 1.91547 202 85 95 0.903158 0.1222 -0.411548
-0.446382 -0.997851 1.91547 202 85 95 0.919346 0.091254 -0.382721
-0.516829 -0.97373 1.91547 191 52 84 -0.64689 0.613459 -0.45299
-0.515352 -0.972272 1.91547 191 52 84 -0.53228 0.695802 -0.482222
-0.513044 -0.970715 1.91547 197 55 88 -0.492608 0.620384 -0.610296
-0.512336 -0.970109 1.91547 203 53 90 -0.597373 0.553374 -0.58045
-0.510262 -0.9677 1.91547 203 53 90 -0.543815 0.53708 -0.644833
-0.509321 -0.966808 1.91547 203 53 90 -0.468238 0.698191 -0.541556
-0.506306 -0.965304 1.91547 212 59 98 0.020344 0.503176 -0.863944
-0.503291 -0.967031 1.91547 215 63 99 0.177268 0.355953 -0.917537
-0.500276 -0.968632 1.91547 214 60 98 0.055982 0.454686 -0.888891
-0.502657 -0.9677 1.91547 214 60 98 0.185395 0.424802 -0.886099
-0.48613 -0.97373 1.91547 202 69 95 0.548407 0.750195 -0.369402
-0.488215 -0.972275 1.91547 202 62 93 0.575593 0.744217 -0.33887
-0.527412 -0.994836 1.91327 178 55 81 -0.54491 0.203006 -0.813549
-0.524397 -0.988806 1.91316 191 56 88 -0.542164 0.247003 -0.803149
-0.530427 -0.994836 1.91509 199 67 98 -0.516993 0.129612 -0.84612
-0.497261 -0.970715 1.91386 207 58 94 -0.232803 0.482343 -0.844481
-0.524397 -0.985791 1.91391 191 56 88 -0.668076 0.269463 -0.693588
-0.494246 -0.970715 1.9125 207 58 94 0.032495 0.685223 -0.727608
-0.494246 -0.9677 1.91507 207 58 94 -0.138419 0.596841 -0.79033
-0.539473 -1.028 1.91444 166 79 85 -0.185388 0.154703 -0.970411
-0.491231 -0.970715 1.91281 207 58 94 0.408846 0.793453 -0.450862
-0.521382 -0.979761 1.91425 178 53 80 -0.775427 0.476311 -0.414537
-0.539473 -1.02499 1.91476 184 66 86 -0.0686 0.051178 -0.996331
-0.515352 -0.97373 1.91289 191 52 84 -0.58988 0.720601 -0.364385
-0.536458 -1.028 1.91323 181 58 83 -0.4744 0.163029 -0.865082
-0.512336 -0.970715 1.91468 197 55 88 -0.484167 0.668452 -0.564583
-0.509321 -0.970715 1.91258 197 55 88 -0.285384 0.591494 -0.754116
-0.509321 -0.9677 1.91482 203 53 90 -0.254721 0.545385 -0.798544
-0.536458 -1.02499 1.91341 187 57 84 -0.436105 0.176484 -0.88242
-0.506306 -0.970715 1.91258 210 62 96 0.219039 0.472823 -0.853499
-0.446004 -1.02197 1.91317 211 122 116 0.684928 0.139996 -0.715035
-0.446004 -1.01896 1.91251 211 122 116 0.819875 -0.124668 -0.558805
-0.47917 -0.976745 1.91322 205 85 101 0.398837 0.766744 -0.503023
-0.470125 -0.979761 1.91341 198 53 83 0.076484 0.95022 -0.302048
-0.503291 -0.970715 1.9136 210 62 96 0.25365 0.478091 -0.840887
-0.46711 -0.979761 1.91382 197 54 83 0.260874 0.946521 -0.189851
-0.500276 -0.97373 1.91303 214 62 101 -0.067978 0.478619 -0.875387
-0.497261 -0.97373 1.91247 210 60 96 -0.160125 0.480374 -0.862323
-0.446004 -1.00991 1.91452 183 64 76 0.881039 0.243819 -0.405368
-0.500276 -0.970715 1.91454 210 60 96 0.102444 0.442052 -0.89112
-0.458064 -0.985791 1.91336 188 66 88 0.564966 0.78214 -0.262812
-0.506306 -0.9677 1.91413 213 61 98 0.054085 0.500631 -0.86397
-0.446004 -1.0069 1.91446 183 64 76 0.71998 0.061795 -0.691238
-0.503291 -0.9677 1.91531 213 61 98 0.295403 0.443877 -0.845996
-0.446004 -1.00388 1.91478 208 85 101 0.74445 0.107614 -0.658949
-0.446004 -1.00087 1.91545 190 75 82 0.790747 0.037922 -0.610968
-0.536458 -1.01594 1.91475 199 68 94 -0.066181 0.184102 -0.980677
-0.533442 -1.01594 1.91478 191 63 88 -0.42373 0.251825 -0.870079
-0.530427 -1.01293 1.91339 200 68 93 -0.665318 0.120561 -0.736761
-0.530427 -1.0069 1.91358 181 54 77 -0.87038 0.097652 -0.482601
-0.530427 -1.00388 1.91438 181 54 77 -0.803481 0.167329 -0.571331
-0.530427 -1.00087 1.9154 181 54 77 -0.768396 0.032309 -0.639159
-0.530427 -0.997851 1.91478 196 63 92 -0.636575 0.079753 -0.76708
-0.44657 -0.994836 1.91849 202 85 95 0.848911 0.503441 -0.160924
-0.448621 -0.991821 1.91849 202 85 95 0.798111 0.594585 -0.097402
-0.491231 -0.966742 1.91849 207 58 94 0.629295 0.739147 -0.240105
-0.449019 -0.991415 1.91849 202 85 95 0.660629 0.747364 -0.070833
-0.4939 -0.964685 1.91849 207 58 94 0.559615 0.76486 -0.319093
-0.488215 -0.970526 1.91849 204 64 94 0.705167 0.673896 -0.220462
-0.439973 -1.0226 1.91849 184 120 107 0.344527 0.697218 -0.62864
-0.490502 -0.9677 1.91849 204 64 94 0.753373 0.594097 -0.281918
-0.441322 -1.02197 1.91849 184 120 107 0.628697 0.457691 -0.628697
-0.488052 -0.970715 1.91849 204 64 94 0.49485 0.830917 -0.254362
-0.461079 -0.983547 1.91849 190 50 84 0.453258 0.888606 0.070262
-0.46229 -0.982776 1.91849 190 50 84 0.546234 0.821596 0.163122
-0.470125 -0.977683 1.91849 196 54 83 0.39364 0.886805 -0.242126
-0.472624 -0.976745 1.91849 196 54 83 0.309436 0.857493 -0.411042
-0.46711 -0.979315 1.91849 197 54 83 0.400595 0.911935 -0.088869
-0.464094 -0.981405 1.91849 193 56 86 0.590284 0.793522 0.147945
-0.466393 -0.979761 1.91849 193 56 86 0.544627 0.836039 0.066487
-0.524397 -0.98046 1.91849 178 53 80 -0.626787 0.535556 -0.565966
-0.442247 -1.01896 1.91849 153 95 81 0.794033 0.11638 -0.59663
-0.47917 -0.974334 1.91849 201 63 92 0.450156 0.887691 -0.096763
-0.523778 -0.979761 1.91849 178 53 80 -0.718383 0.519293 -0.462884
-0.480323 -0.97373 1.91849 201 63 92 0.380155 0.911524 -0.156867
-0.442208 -1.01594 1.91849 186 110 101 0.832868 0.040322 -0.552001
-0.4852 -0.972324 1.91849 201 63 92 0.374792 0.862175 -0.34086
-0.442537 -1.01293 1.91849 186 110 101 0.851405 0.126188 -0.509103
-0.482185 -0.972913 1.91849 201 63 92 0.256765 0.939623 -0.226231
-0.521764 -0.976745 1.91849 178 53 80 -0.572662 0.37904 -0.726903
-0.476155 -0.975903 1.91849 200 56 87 0.34783 0.89122 -0.291102
-0.47314 -0.976628 1.91849 200 56 87 0.321371 0.89895 -0.297675
-0.51906 -0.97373 1.91849 181 51 80 -0.617045 0.573091 -0.53928
-0.508998 -0.964685 1.91849 207 56 96 -0.482029 0.733811 -0.478716
-0.506306 -0.962893 1.91849 207 56 96 -0.152412 0.839004 -0.522343
-0.518367 -0.972921 1.91849 191 52 84 -0.586865 0.499424 -0.637312
-0.503291 -0.963459 1.91849 215 60 100 0.220783 0.798217 -0.56045
-0.500399 -0.964685 1.91849 207 58 96 0.383887 0.703519 -0.598073
-0.51647 -0.970715 1.91849 191 52 84 -0.58632 0.576182 -0.569423
-0.515352 -0.969756 1.91849 197 55 88 -0.538984 0.626844 -0.562639
-0.500162 -0.964685 1.91849 207 58 96 -0.253863 0.742667 -0.619677
-0.497261 -0.964094 1.91849 207 58 96 0.106697 0.907621 -0.406005
-0.513077 -0.9677 1.91849 203 53 90 -0.573826 0.594138 -0.56367
-0.512336 -0.966853 1.91849 203 53 90 -0.506081 0.647313 -0.569972
-0.494246 -0.96459 1.91849 206 57 92 0.217491 0.956695 -0.193474
-0.509321 -0.965 1.91849 203 53 90 -0.449988 0.718984 -0.529691
-0.455049 -0.985821 1.91849 188 66 88 0.683576 0.673971 -0.280154
-0.455122 -0.985791 1.91849 188 66 88 0.452815 0.871705 -0.187321
-0.458064 -0.984875 1.91849 188 66 88 0.325964 0.944655 0.03707
-0.442989 -1.01029 1.91849 176 65 72 0.805621 0.196456 -0.558909
-0.452144 -0.988806 1.91849 188 66 88 0.656889 0.727987 -0.196294
-0.443093 -1.00991 1.91849 176 65 72 0.853695 0.147896 -0.499331
-0.500276 -0.964729 1.91849 214 60 98 0.00138 0.674661 -0.738126
-0.44406 -1.0069 1.91849 183 64 76 0.906989 0.194664 -0.373466
-0.444568 -1.00388 1.91849 183 71 81 0.928001 0.166063 -0.333522
-0.445 -1.00087 1.91849 171 73 76 0.941893 0.154029 -0.298516
-0.452034 -0.989019 1.91849 198 71 90 0.636181 0.763122 -0.113657
-0.445569 -0.997851 1.91849 202 85 95 0.939247 0.203943 -0.276086
-0.446004 -0.996247 1.91849 202 85 95 0.916279 0.336973 -0.216523
-0.449019 -0.991821 1.91605 202 85 95 0.744283 0.65443 -0.133282
-0.536458 -1.01293 1.91619 191 63 88 -0.034048 0.303913 -0.952091
-0.533442 -1.01293 1.91555 191 63 88 -0.20353 0.249973 -0.94662
-0.497261 -0.9677 1.91583 207 58 94 -0.082879 0.389939 -0.917104
-0.491231 -0.9677 1.91696 207 58 94 0.652898 0.619502 -0.435822
-0.497261 -0.964685 1.91702 207 58 94 -0.064796 0.658038 -0.750192
-0.494246 -0.964685 1.91818 207 58 94 0.265235 0.732175 -0.627352
-0.488215 -0.970715 1.91824 204 64 94 0.619867 0.676068 -0.398368
-0.521382 -0.976745 1.91799 178 53 80 -0.72693 0.528225 -0.438807
-0.476155 -0.976745 1.91642 204 60 93 0.425545 0.787986 -0.444961
-0.47314 -0.976745 1.91826 201 60 88 0.30155 0.803608 -0.513109
-0.442989 -1.02197 1.91637 211 122 116 0.791716 0.258679 -0.553417
-0.442989 -1.01896 1.91728 211 122 116 0.848694 0.086717 -0.521726
-0.4852 -0.97373 1.916 201 59 91 0.116718 0.895778 -0.428905
-0.482185 -0.97373 1.91614 201 59 91 0.186459 0.929492 -0.318242
-0.442989 -1.01594 1.9171 186 110 101 0.856842 0.04568 -0.513552
-0.442989 -1.01293 1.91774 186 110 101 0.837889 0.127219 -0.530809
-0.506306 -0.964685 1.91594 207 56 96 -0.142883 0.75051 -0.645228
-0.503291 -0.964685 1.9164 215 60 100 0.286581 0.625996 -0.725259
-0.518367 -0.97373 1.91763 181 51 80 -0.645738 0.595421 -0.478014
-0.515352 -0.970715 1.91725 191 52 84 -0.527799 0.618857 -0.581759
-0.512336 -0.9677 1.91754 203 53 90 -0.562613 0.586267 -0.582888
-0.500276 -0.9677 1.9158 217 62 101 0.07487 0.518443 -0.851828
-0.446004 -0.997851 1.91677 202 85 95 0.942969 0.196853 -0.268436
-0.533442 -1.00087 1.91624 183 62 85 -0.21449 -0.067411 -0.974397
-0.533442 -0.997851 1.91608 188 66 90 -0.310502 0.047278 -0.949396
-0.440869 -1.01293 1.9215 189 53 74 0.894067 0.150203 -0.422
-0.461079 -0.984189 1.9215 186 49 80 0.38581 0.896312 0.218577
-0.458064 -0.984909 1.9215 186 49 80 0.230118 0.965469 0.12213
-0.44116 -1.00991 1.9215 189 53 74 0.83559 0.123953 -0.535186
-0.455049 -0.985739 1.9215 186 49 80 0.271059 0.962562 -0.001205
-0.452034 -0.988441 1.9215 185 46 79 0.691601 0.722215 -0.009741
-0.442989 -1.00555 1.9215 170 75 80 0.744296 0.39096 -0.541455
-0.436958 -1.02141 1.9215 201 121 116 0.482597 0.593578 -0.644023
-0.443538 -1.00388 1.9215 170 75 80 0.914287 0.180582 -0.362587
-0.439701 -1.01896 1.9215 201 121 116 0.561377 0.487644 -0.668625
-0.439973 -1.01753 1.9215 189 59 77 0.79638 0.190339 -0.574064
-0.454936 -0.985791 1.9215 185 46 79 0.669963 0.741084 0.044095
-0.444051 -1.00087 1.9215 171 75 80 0.917835 0.162137 -0.36234
-0.440158 -1.01594 1.9215 189 59 77 0.897231 0.137926 -0.419466
-0.451716 -0.988806 1.9215 185 46 79 0.693064 0.720842 0.006945
-0.449019 -0.991507 1.9215 186 66 84 0.700252 0.711708 0.055848
-0.444612 -0.997851 1.9215 196 69 87 0.892399 0.297466 -0.339321
-0.446004 -0.994928 1.9215 196 69 87 0.88547 0.425904 -0.185875
-0.446066 -0.994836 1.9215 196 69 87 0.815057 0.573558 -0.081937
-0.448661 -0.991821 1.9215 196 69 87 0.706663 0.706663 -0.035404
-0.50949 -0.96167 1.9215 188 50 85 -0.521999 0.596329 -0.609843
-0.4852 -0.971366 1.9215 191 47 82 0.448382 0.889822 -0.084679
-0.486544 -0.970715 1.9215 191 47 82 0.5117 0.833601 -0.208021
-0.491231 -0.966447 1.9215 191 47 82 0.658293 0.744093 -0.113907
-0.493353 -0.964685 1.9215 191 47 82 0.59095 0.799176 -0.109978
-0.520474 -0.970715 1.9215 183 52 81 -0.445196 0.527947 -0.723237
-0.488215 -0.969481 1.9215 191 47 82 0.657491 0.731056 -0.182381
-0.4899 -0.9677 1.9215 191 47 82 0.728418 0.667842 -0.152953
-0.47917 -0.974074 1.9215 196 50 85 0.252564 0.959218 -0.126936
-0.480095 -0.97373 1.9215 196 50 85 0.38926 0.92112 -0.003854
-0.482185 -0.972678 1.9215 196 50 85 0.37213 0.927039 -0.046023
-0.476155 -0.974502 1.9215 194 47 80 0.273363 0.949363 -0.154861
-0.47314 -0.975596 1.9215 197 47 82 0.367526 0.91095 -0.187338
-0.506306 -0.962044 1.9215 187 55 84 0.001234 0.949175 -0.314746
-0.50909 -0.96167 1.9215 187 55 84 -0.061411 0.781203 -0.621249
-0.505562 -0.96167 1.9215 208 56 95 -0.111868 0.979767 -0.165958
-0.503291 -0.961473 1.9215 186 53 83 0.000978 0.999999 0.000978
-0.500276 -0.962303 1.9215 206 56 95 0.152122 0.843315 -0.515441
-0.501631 -0.96167 1.9215 206 56 95 0.176311 0.944424 -0.27745
-0.497261 -0.96272 1.9215 206 56 95 0.301684 0.896137 -0.325463
-0.494246 -0.964189 1.9215 211 63 98 0.402368 0.888748 -0.219608
-0.442989 -1.00991 1.91864 199 74 93 0.787527 0.303874 -0.536155
-0.455049 -0.985791 1.91877 186 49 80 0.52857 0.847654 -0.045782
-0.509321 -0.964685 1.91891 188 50 85 -0.432039 0.612195 -0.662238
-0.509321 -0.96167 1.92142 188 50 85 0.001376 0.642481 -0.7663
-0.442989 -1.0069 1.92057 199 74 93 0.850344 0.258934 -0.458113
-0.452034 -0.988806 1.9189 185 46 79 0.678323 0.725821 -0.114291
-0.500276 -0.964685 1.91856 213 59 98 0.001373 0.778585 -0.627537
-0.503291 -0.96167 1.92107 208 56 95 0.071216 0.867154 -0.492923
-0.518367 -0.970715 1.92011 183 52 81 -0.528331 0.50485 -0.682637
-0.439973 -1.02197 1.91911 201 121 116 0.436887 0.553169 -0.709319
-0.436958 -1.02197 1.92099 195 123 116 0.361891 0.69267 -0.623894
-0.439973 -1.01896 1.92121 213 119 116 0.67415 0.294438 -0.677368
-0.43977 -1.01293 1.92452 190 58 80 0.942466 0.021564 -0.333605
-0.439509 -1.00991 1.92452 190 58 80 0.966167 -0.061087 -0.25058
-0.455049 -0.986454 1.92452 186 49 80 0.522907 0.819067 0.236002
-0.456761 -0.985791 1.92452 186 49 80 0.239167 0.920864 0.307909
-0.436958 -1.01862 1.92452 189 59 77 0.633269 0.695131 -0.34024
-0.439151 -1.0069 1.92452 205 68 95 0.965873 0.100798 -0.238597
-0.461079 -0.985133 1.92452 186 49 80 0.269323 0.920307 0.283725
-0.458064 -0.985569 1.92452 186 49 80 0.14582 0.960311 0.237779
-0.439973 -1.00547 1.92452 188 59 79 0.764901 0.466802 -0.443872
-0.439828 -1.01594 1.92452 189 59 77 0.834079 0.411521 -0.367373
-0.441373 -1.00388 1.92452 188 59 79 0.735561 0.378429 -0.561909
-0.433943 -1.02022 1.92452 172 102 95 0.326766 0.681169 -0.655158
-0.442509 -1.00087 1.92452 204 74 95 0.824034 0.21172 -0.525493
-0.436455 -1.01896 1.92452 172 102 95 0.343394 0.727474 -0.594022
-0.452034 -0.988928 1.92452 186 66 84 0.686096 0.72751 -0.00138
-0.452178 -0.988806 1.92452 185 46 79 0.633537 0.773712 -0.001374
-0.449019 -0.991793 1.92452 186 66 84 0.696704 0.716488 0.03533
-0.442989 -0.998259 1.92452 196 69 87 0.84472 0.164787 -0.509208
-0.443122 -0.997851 1.92452 196 69 87 0.747891 0.438872 -0.498046
-0.4852 -0.971294 1.92452 191 47 82 0.526307 0.841216 -0.123923
-0.485972 -0.970715 1.92452 191 47 82 0.589196 0.791119 -0.164251
-0.444954 -0.994836 1.92452 196 69 87 0.691292 0.605499 -0.394317
-0.491231 -0.965928 1.92452 191 47 82 0.675921 0.701014 -0.227398
-0.446004 -0.994018 1.92452 196 69 87 0.612027 0.784388 -0.100787
-0.448989 -0.991821 1.92452 196 69 87 0.593491 0.803949 0.037882
-0.492632 -0.964685 1.92452 191 47 82 0.605972 0.769414 -0.201991
-0.488215 -0.968791 1.92452 191 47 82 0.618681 0.742101 -0.257916
-0.489312 -0.9677 1.92452 191 47 82 0.68691 0.708234 -0.16297
-0.47917 -0.973979 1.92452 196 50 85 0.254188 0.966405 0.038067
-0.480207 -0.97373 1.92452 196 50 85 0.283879 0.958853 -0.003655
-0.482185 -0.973083 1.92452 196 50 85 0.445632 0.895208 -0.003944
-0.476155 -0.974538 1.92452 194 47 80 0.266635 0.960651 0.077822
-0.47314 -0.975855 1.92452 194 47 80 0.367798 0.929243 0.03509
-0.503291 -0.961706 1.92452 186 53 83 0.000978 0.999999 0.000978
-0.503386 -0.96167 1.92452 186 53 83 0.554068 0.513649 -0.655113
-0.504914 -0.958655 1.92452 203 53 90 0.498995 0.57292 -0.650205
-0.503059 -0.96167 1.92452 206 56 95 -0.034435 0.847108 -0.530304
-0.500276 -0.961484 1.92452 206 56 95 0.197848 0.832168 -0.518028
-0.497261 -0.961647 1.92452 206 56 95 0.058079 0.946044 -0.31879
-0.494246 -0.96349 1.92452 209 62 97 0.531639 0.778987 -0.332475
-0.497189 -0.96167 1.92452 209 62 97 0.393887 0.830485 -0.393887
-0.455049 -0.985791 1.92222 186 49 80 0.446701 0.874237 0.19018
-0.439973 -1.01293 1.92394 190 58 80 0.936264 0.064344 -0.345354
-0.439973 -1.00991 1.92342 190 58 80 0.882626 -0.045018 -0.467915
-0.452034 -0.988806 1.92405 185 46 79 0.676243 0.726775 0.120386
-0.439973 -1.0069 1.92341 190 58 80 0.742612 0.206195 -0.637189
-0.442989 -1.00388 1.92247 171 75 80 0.786273 0.25167 -0.564303
-0.436958 -1.01896 1.92414 201 121 116 0.629562 0.518165 -0.578927
-0.442989 -1.00087 1.92359 171 75 80 0.855379 0.185952 -0.483475
-0.439973 -1.01594 1.92327 189 59 77 0.883632 0.371818 -0.284509
-0.446004 -0.994836 1.92173 196 69 87 0.776848 0.579901 -0.245403
-0.506306 -0.96167 1.92216 202 54 91 0.225826 0.615182 -0.75535
-0.503291 -0.96167 1.92411 186 53 83 0.001034 0.998136 0.061026
-0.500276 -0.96167 1.92367 206 56 95 0.097117 0.969913 -0.223244
-0.497261 -0.96167 1.92444 206 56 95 0.286506 0.906535 -0.310014
-0.436958 -1.0169 1.92753 200 80 92 0.328484 0.777145 -0.536791
-0.438102 -1.01594 1.92753 200 80 92 0.801126 0.374073 -0.46719
-0.438699 -1.01293 1.92753 200 80 92 0.897741 0.183596 -0.400442
-0.433943 -1.01766 1.92753 196 114 112 0.166304 0.822532 -0.54386
-0.430928 -1.018 1.92753 177 102 100 0.07331 0.794905 -0.602288
-0.488215 -0.967757 1.92753 185 46 77 0.540108 0.795203 -0.275565
-0.488344 -0.9677 1.92753 185 46 77 0.686113 0.666831 -0.290835
-0.4852 -0.969828 1.92753 185 46 77 0.605925 0.751474 -0.261038
-0.491097 -0.964685 1.92753 185 46 77 0.683111 0.667038 -0.297354
-0.438874 -1.00991 1.92753 199 74 93 0.963566 0.048615 -0.263017
-0.47917 -0.973976 1.92753 192 47 80 0.350003 0.935511 -0.048142
-0.479998 -0.97373 1.92753 192 47 80 0.297621 0.953654 -0.044327
-0.438952 -1.0069 1.92753 199 74 93 0.970545 0.065695 -0.23179
-0.482185 -0.973014 1.92753 192 47 80 0.549424 0.809597 -0.206608
-0.484474 -0.970715 1.92753 192 47 80 0.691702 0.656231 -0.301511
-0.43918 -1.00388 1.92753 221 100 119 0.930206 0.188839 -0.314732
-0.439973 -1.00238 1.92753 221 98 115 0.822554 0.339442 -0.456273
-0.476155 -0.975166 1.92753 189 43 76 0.312461 0.949832 -0.013694
-0.440625 -1.00087 1.92753 221 98 115 0.843448 0.168095 -0.510234
-0.47314 -0.975856 1.92753 188 43 74 0.257437 0.966288 0.003592
-0.449019 -0.99211 1.92753 181 52 72 0.418483 0.908224 0.001296
-0.449331 -0.991821 1.92753 181 52 72 0.828486 0.560008 -0.001356
-0.500276 -0.959804 1.92753 197 54 90 0.371069 0.828985 -0.41844
-0.44089 -0.997851 1.92753 203 72 91 0.840968 0.296904 -0.452351
-0.442462 -0.994836 1.92753 203 72 91 0.837496 0.484057 -0.253554
-0.446004 -0.993361 1.92753 183 60 77 0.386996 0.898122 -0.208832
-0.442989 -0.994214 1.92753 182 54 71 0.42503 0.886576 -0.182573
-0.502054 -0.958655 1.92753 197 54 90 0.468138 0.821212 -0.326278
-0.497261 -0.960624 1.92753 204 54 91 0.216487 0.890983 -0.399102
-0.491231 -0.964512 1.92753 197 56 86 0.718937 0.496448 -0.486486
-0.494178 -0.96167 1.92753 197 56 86 0.5591 0.659839 -0.502015
-0.494246 -0.961627 1.92753 187 57 85 0.220162 0.839651 -0.496503
-0.439973 -1.00388 1.92627 221 98 116 0.838114 0.330546 -0.43394
-0.449019 -0.991821 1.92691 181 52 72 0.640455 0.765978 -0.05563
-0.442989 -0.997851 1.92467 196 69 87 0.755111 0.344408 -0.557844
-0.442989 -0.994836 1.92662 196 69 87 0.62017 0.576235 -0.532299
-0.4852 -0.970715 1.9259 191 47 82 0.618228 0.747222 -0.24383
-0.491231 -0.964685 1.92722 201 47 87 0.621145 0.693257 -0.365476
-0.503291 -0.96167 1.92457 202 54 91 0.001307 0.440405 -0.897798
-0.503291 -0.958655 1.92602 199 54 90 0.3799 0.712107 -0.590407
-0.494246 -0.96167 1.92747 201 60 92 0.393395 0.829448 -0.396555
-0.436958 -1.01369 1.93055 200 80 92 0.672543 0.518244 -0.528307
-0.437506 -1.01293 1.93055 200 80 92 0.916018 0.195779 -0.350116
-0.433943 -1.01609 1.93055 177 102 100 0.001316 0.888291 -0.459279
-0.434543 -1.01594 1.93055 177 102 100 0.469564 0.693485 -0.546432
-0.432881 -1.01594 1.93055 170 97 96 -0.049233 0.814454 -0.578136
-0.430928 -1.01582 1.93055 177 102 100 0.001372 0.783405 -0.62151
-0.438163 -1.00991 1.93055 199 74 93 0.924178 0.076456 -0.374232
-0.438015 -1.0069 1.93055 199 74 93 0.918315 0.057478 -0.391654
-0.438472 -1.00388 1.93055 221 98 116 0.900079 0.116547 -0.41985
-0.438341 -1.00087 1.93055 221 98 116 0.87886 0.180467 -0.441631
-0.449019 -0.99081 1.93055 181 52 72 0.685581 0.698017 -0.206762
-0.450013 -0.988806 1.93055 181 52 72 0.768525 0.638314 -0.043875
-0.439645 -0.997851 1.93055 210 79 100 0.872374 0.436933 -0.219212
-0.439973 -0.997211 1.93055 203 72 91 0.798978 0.553855 -0.234263
-0.441808 -0.994836 1.93055 203 72 91 0.765404 0.607685 -0.211839
-0.446004 -0.992601 1.93055 184 66 83 0.447962 0.879977 -0.158019
-0.447745 -0.991821 1.93055 184 66 83 0.447728 0.854198 -0.264358
-0.442989 -0.993974 1.93055 183 60 77 0.419586 0.903829 -0.083917
-0.4852 -0.969202 1.93055 185 46 77 0.516967 0.74673 -0.418497
-0.486771 -0.9677 1.93055 185 46 77 0.644734 0.696442 -0.315096
-0.488215 -0.966173 1.93055 184 46 77 0.653338 0.679406 -0.334001
-0.490083 -0.964685 1.93055 184 46 77 0.77784 0.352685 -0.520171
-0.482185 -0.971696 1.93055 192 47 80 0.493183 0.773141 -0.398778
-0.483168 -0.970715 1.93055 192 47 80 0.647102 0.698741 -0.304993
-0.47917 -0.97348 1.93055 192 47 80 0.344601 0.694101 -0.63204
-0.476155 -0.974498 1.93055 188 43 74 0.353028 0.892252 -0.281528
-0.478412 -0.97373 1.93055 188 43 74 0.339199 0.725463 -0.598872
-0.497261 -0.959074 1.93055 194 54 88 0.192236 0.856867 -0.478355
-0.499668 -0.958655 1.93055 194 54 88 0.208941 0.852298 -0.479512
-0.494246 -0.959614 1.93055 187 57 85 0.165245 0.629144 -0.759521
-0.493785 -0.958655 1.93055 187 57 85 -0.23371 0.122665 -0.964538
-0.436958 -1.01594 1.92864 200 80 92 0.573918 0.587462 -0.570532
-0.430928 -1.01594 1.93034 170 97 96 0.001364 0.808912 -0.587928
-0.439973 -1.00087 1.92831 221 98 116 0.822565 0.162722 -0.544893
-0.488215 -0.9677 1.92766 185 46 77 0.592312 0.74641 -0.303379
-0.449019 -0.991821 1.92874 181 52 72 0.677368 0.67415 -0.294438
-0.47917 -0.97373 1.92945 192 47 80 0.369784 0.901805 -0.223624
-0.500276 -0.958655 1.93014 198 54 90 0.436927 0.837835 -0.327304
