ply
format ascii 1.0
element vertex 739
property float x
property float y
property float z
property uchar red
property uchar green
property uchar blue
property float nx
property float ny
property float nz
end_header
-0.496909 1.01022 1.90643 164 45 69 0.592079 0.507737 -0.625816
-0.537495 1.03736 1.90643 173 35 73 -0.357 0.388179 -0.849628
-0.509321 1.01348 1.90643 171 56 78 0.206571 0.722221 -0.660095
-0.517177 1.02228 1.90643 143 98 101 0.648154 -0.00691 -0.761478
-0.516666 1.0253 1.90643 116 90 90 0.627116 -0.079657 -0.774843
-0.530427 1.03707 1.90643 176 36 75 0.097114 0.460235 -0.882469
-0.527412 1.03649 1.90643 176 37 74 0.003966 0.466669 -0.884423
-0.521382 1.03395 1.90643 177 46 83 0.158835 0.143827 -0.976773
-0.521574 1.03435 1.90643 177 46 83 0.235548 0.232793 -0.94357
-0.524397 1.03703 1.90643 175 40 76 0.089601 0.343695 -0.934797
-0.563594 1.03153 1.90643 164 53 34 0.316745 0.039434 -0.947691
-0.563949 1.03435 1.90643 164 53 34 0.213285 -0.015319 -0.97687
-0.518367 1.03313 1.90643 148 51 74 0.109213 0.288163 -0.951333
-0.563594 1.0346 1.90643 169 53 32 0.320626 -0.155497 -0.934355
-0.562402 1.03736 1.90643 167 51 32 0.407397 0.019649 -0.91304
-0.563594 1.04075 1.90643 170 54 32 0.304873 0.124904 -0.944167
-0.565448 1.04339 1.90643 170 54 32 0.25875 0.127405 -0.957505
-0.56347 1.04037 1.90643 171 55 32 0.411011 0.143641 -0.900243
-0.536458 1.03787 1.90643 164 39 49 0.017697 0.529549 -0.848095
-0.539473 0.998163 1.90608 192 106 114 -0.326867 -0.940902 0.088664
-0.566609 1.00118 1.90624 166 66 61 -0.047175 -0.435358 -0.899021
-0.545503 1.00118 1.90356 192 107 114 -0.350441 -0.917958 0.185862
-0.557564 1.00419 1.90557 178 117 114 -0.180997 -0.783306 -0.594704
-0.551533 1.0253 1.90396 174 38 71 -0.317966 0.778139 -0.541661
-0.548518 1.02831 1.90536 174 38 71 -0.300939 0.680734 -0.66786
-0.545503 1.02831 1.90423 175 38 73 -0.261863 0.680843 -0.684018
-0.527412 0.995148 1.90631 195 85 106 -0.070557 -0.927897 -0.3661
-0.524397 0.995148 1.90539 196 94 111 -0.047465 -0.89369 -0.446167
-0.533442 1.03736 1.90628 168 32 66 0.066654 0.328043 -0.942308
-0.521382 0.995148 1.90568 196 96 111 -0.139497 -0.908841 -0.393127
-0.557564 1.0253 1.90617 161 32 61 -0.067712 0.741946 -0.667031
-0.503291 0.998163 1.90348 199 79 103 0.149632 -0.733044 -0.663518
-0.554548 1.0253 1.90572 161 32 61 -0.241659 0.790457 -0.562831
-0.500276 0.998163 1.90413 197 78 103 0.46471 -0.46471 -0.753717
-0.500276 1.00118 1.90344 181 64 86 0.739881 -0.152818 -0.655151
-0.563594 1.00419 1.9051 160 55 37 0.156641 -0.481635 -0.862259
-0.497261 1.00419 1.90545 172 57 79 0.863458 -0.217742 -0.455005
-0.500276 1.00721 1.9036 164 46 68 0.305077 0.43516 -0.847091
-0.560579 1.00419 1.90566 154 60 49 0.017988 -0.601894 -0.798374
-0.497261 1.00721 1.90444 157 38 60 0.590543 0.145019 -0.793869
-0.539473 1.02831 1.90379 175 35 75 0.001257 0.35071 -0.936483
-0.506306 1.01022 1.9037 154 36 60 0.143254 0.686111 -0.713253
-0.542488 1.03133 1.90593 175 35 75 -0.260419 0.604487 -0.752847
-0.503291 1.01022 1.90432 154 36 60 0.123023 0.626974 -0.769265
-0.539473 1.03133 1.9048 175 35 75 -0.225739 0.396887 -0.889676
-0.536458 1.03133 1.90422 173 34 72 -0.042674 0.345271 -0.937532
-0.533442 1.03133 1.90426 173 34 72 0.003766 0.340228 -0.940335
-0.539473 1.03435 1.90611 173 35 73 -0.316653 0.383961 -0.867355
-0.536458 1.03435 1.90511 173 35 73 -0.146419 0.316102 -0.937358
-0.533442 1.03435 1.90539 173 35 73 0.011248 0.323697 -0.946094
-0.536458 1.03736 1.9061 173 35 73 0.01378 0.324454 -0.945801
-0.569624 1.02831 1.90424 169 55 35 0.27817 0.091861 -0.956129
-0.521382 1.01927 1.90428 158 35 65 0.424933 0.289936 -0.857536
-0.527412 1.0253 1.90389 170 39 73 0.401035 0.276941 -0.873198
-0.569624 1.03133 1.90427 169 55 35 0.330519 0.053142 -0.942302
-0.572639 1.03435 1.9035 169 54 36 0.297503 0.093052 -0.950175
-0.524397 1.0253 1.90516 163 36 66 0.188911 0.204764 -0.960408
-0.569624 1.03435 1.90445 169 54 36 0.342151 0.0753 -0.936623
-0.572639 1.03736 1.90381 169 54 36 0.27386 0.099939 -0.956563
-0.569624 1.03736 1.90471 169 54 36 0.31972 0.047509 -0.94632
-0.518367 1.0253 1.90513 137 107 107 0.286119 -0.001218 -0.958193
-0.530427 1.02831 1.90352 163 37 71 0.36532 0.287145 -0.885488
-0.566609 1.03133 1.90531 169 54 34 0.298841 0.098736 -0.949181
-0.527412 1.02831 1.90478 163 37 71 0.317983 0.204923 -0.925685
-0.530427 1.03133 1.90447 163 37 71 0.190307 0.241595 -0.951533
-0.527412 1.03133 1.90508 163 37 71 0.177296 0.096596 -0.979406
-0.524397 1.02831 1.90557 154 37 67 0.053072 0.109532 -0.992565
-0.566609 1.03435 1.90582 169 53 31 0.322629 0.060898 -0.944564
-0.524397 1.03133 1.90553 170 38 74 0.148066 0.037877 -0.988252
-0.566609 1.03736 1.90567 167 53 32 0.207344 -0.015229 -0.97815
-0.530427 1.03435 1.90504 176 36 77 0.046811 0.292252 -0.955195
-0.563594 1.03736 1.90587 169 53 32 0.173875 -0.021878 -0.984525
-0.527412 1.03435 1.90541 176 35 75 0.069323 0.255866 -0.964224
-0.524397 1.03435 1.90551 181 41 80 0.170934 0.150676 -0.973693
-0.518367 1.03133 1.90578 107 72 71 0.083374 0.220258 -0.971872
-0.569624 1.04037 1.90491 170 54 32 0.252381 0.055946 -0.966009
-0.566609 1.04037 1.90559 170 54 32 0.239709 0.079066 -0.96762
-0.563594 1.04037 1.90636 170 54 32 0.213045 0.088457 -0.97303
-0.569624 1.04339 1.90489 170 54 32 0.254173 0.107088 -0.961212
-0.566609 1.04339 1.90606 170 54 32 0.319267 0.105532 -0.94177
-0.56784 1.04942 1.90643 170 54 32 0.287638 0.132447 -0.948537
-0.569624 1.05282 1.90643 170 54 32 0.240255 0.145729 -0.959709
-0.57143 1.05545 1.90643 170 54 32 0.202798 0.15113 -0.967488
-0.581684 1.03736 1.90163 167 51 39 0.151652 0.154159 -0.976338
-0.581684 1.04339 1.90261 167 51 39 0.147864 0.147864 -0.977892
-0.581684 1.03133 1.90052 164 56 51 0.202345 0.168403 -0.964726
-0.575654 1.04339 1.90371 170 54 32 0.202247 0.131015 -0.970531
-0.575654 1.04942 1.9046 170 54 32 0.193482 0.147354 -0.969975
-0.569624 1.04942 1.90591 170 54 32 0.214274 0.15194 -0.964884
-0.575654 1.05545 1.90555 170 54 32 0.182464 0.154393 -0.971015
-0.557564 0.998726 1.90944 157 62 51 0.342741 -0.579898 -0.739085
-0.554548 1.00052 1.90944 157 62 51 0.209542 -0.721755 -0.659668
-0.551533 1.00082 1.90944 152 66 57 0.015287 -0.762981 -0.64624
-0.548518 1.00068 1.90944 184 123 120 0.054993 -0.824888 -0.562616
-0.545503 1.00051 1.90944 175 107 102 -0.168054 -0.916532 -0.362941
-0.542488 0.999632 1.90944 194 112 119 -0.339238 -0.917518 -0.207551
-0.539473 1.04179 1.90944 181 40 81 -0.215353 0.468355 -0.856894
-0.539473 0.998499 1.90944 192 118 121 -0.379982 -0.924666 -0.02464
-0.548518 1.0329 1.90944 171 35 69 -0.118734 0.476367 -0.871193
-0.536458 0.997699 1.90944 193 119 121 -0.332892 -0.942123 -0.039844
-0.538384 0.998163 1.90944 193 119 121 -0.241421 -0.969361 -0.045343
-0.536458 1.04332 1.90944 181 40 81 -0.213502 0.449398 -0.867443
-0.545503 1.03398 1.90944 171 35 69 -0.213511 0.551442 -0.806427
-0.533442 0.996234 1.90944 198 114 121 -0.291947 -0.94982 -0.112287
-0.536 1.04339 1.90944 174 35 74 -0.022262 0.402024 -0.915358
-0.544933 1.03435 1.90944 163 38 59 -0.388617 0.502438 -0.772356
-0.533442 1.04361 1.90944 187 45 87 0.001267 0.36373 -0.931504
-0.521382 0.994867 1.90944 187 111 111 -0.188526 -0.981953 0.015036
-0.499107 0.995148 1.90944 197 80 105 0.214335 -0.885425 -0.41241
-0.542488 1.03629 1.90944 163 38 59 -0.464244 0.42515 -0.776998
-0.522341 0.995148 1.90944 187 111 111 -0.13912 -0.98787 0.068976
-0.497261 0.995635 1.90944 197 80 105 0.264361 -0.755092 -0.599958
-0.542077 1.03736 1.90944 163 38 59 -0.470263 0.152872 -0.869185
-0.530427 0.995621 1.90944 191 126 125 -0.154478 -0.987513 -0.030896
-0.530427 1.04334 1.90944 170 33 70 0.246287 0.364269 -0.898137
-0.494246 0.996691 1.90944 192 76 98 0.365476 -0.621145 -0.693257
-0.527412 0.995714 1.90944 191 126 125 0.011518 -0.997892 0.063873
-0.530601 1.04339 1.90944 170 33 70 0.037328 0.343674 -0.938347
-0.491772 0.998163 1.90944 183 68 89 0.326266 -0.507702 -0.797363
-0.524397 0.99564 1.90944 194 108 116 -0.110933 -0.991535 0.067475
-0.527412 1.04128 1.90944 170 33 70 0.113954 0.514957 -0.849608
-0.524397 1.04144 1.90944 170 34 69 0.004077 0.561264 -0.827627
-0.518367 0.994388 1.90944 199 99 113 -0.128492 -0.991695 0.005491
-0.515352 0.994231 1.90944 197 101 113 -0.033208 -0.99731 0.065345
-0.521382 1.04125 1.90944 170 34 69 0.020518 0.540298 -0.841224
-0.512336 0.994509 1.90944 200 92 111 0.146372 -0.987131 -0.064404
-0.512336 1.02179 1.90944 139 98 102 0.209259 0.175041 -0.962066
-0.491231 0.998724 1.90944 183 68 89 0.586216 -0.214998 -0.781106
-0.509321 0.99482 1.90944 200 87 110 0.095833 -0.974506 -0.202866
-0.512898 1.02228 1.90944 139 98 102 0.426629 0.049796 -0.903055
-0.490771 1.00118 1.90944 183 65 89 0.647133 -0.196148 -0.736712
-0.515352 1.03923 1.90944 163 35 66 0.341103 0.551261 -0.76142
-0.516917 1.04037 1.90944 163 35 66 0.239227 0.428803 -0.871148
-0.511145 1.03133 1.90944 125 103 103 0.488565 0.156986 -0.858289
-0.518367 1.04102 1.90944 163 35 66 0.091069 0.463753 -0.881271
-0.512032 1.03435 1.90944 162 43 72 0.537454 0.120891 -0.834583
-0.512336 1.0366 1.90944 176 50 82 0.556532 0.146925 -0.817732
-0.512643 1.03736 1.90944 164 35 66 0.421454 0.556981 -0.715646
-0.490679 1.00721 1.90944 156 37 60 0.546578 0.212813 -0.809915
-0.491231 1.00818 1.90944 153 37 60 0.473023 0.543224 -0.693655
-0.493697 1.01022 1.90944 153 37 60 0.453401 0.667554 -0.590593
-0.557564 1.04843 1.90944 168 55 35 0.305438 0.130518 -0.943225
-0.506306 0.995096 1.90944 200 89 110 -0.062601 -0.92303 -0.379601
-0.494246 1.01056 1.90944 153 37 60 0.53182 0.776039 -0.339015
-0.558022 1.04942 1.90944 168 55 35 0.312091 0.104916 -0.944241
-0.503291 0.994557 1.90944 200 89 110 -0.042712 -0.938368 -0.34299
-0.500276 0.994833 1.90944 198 82 106 0.153185 -0.931529 -0.32983
-0.558939 1.05244 1.90944 168 55 35 0.287604 0.103748 -0.952114
-0.560232 1.05545 1.90944 168 55 35 0.247073 0.098573 -0.96397
-0.554548 1.04441 1.90944 170 54 31 0.136685 0.203111 -0.969568
-0.55662 1.0464 1.90944 170 54 31 0.228807 0.167968 -0.958871
-0.542488 1.04029 1.90944 176 36 73 -0.36847 -0.067841 -0.927161
-0.5425 1.04037 1.90944 176 36 73 -0.449834 -0.001311 -0.893111
-0.542488 1.0404 1.90944 176 36 74 -0.313091 0.443934 -0.839581
-0.539473 1.03736 1.90748 172 34 72 -0.469104 0.391726 -0.791512
-0.539473 1.04037 1.90871 172 34 72 -0.308483 0.320405 -0.895644
-0.536458 1.04037 1.90793 172 34 72 -0.137047 0.463075 -0.875659
-0.533442 1.04037 1.90823 179 38 78 0.050231 0.449362 -0.891936
-0.533442 1.04339 1.90934 174 35 74 0.001257 0.35071 -0.936483
-0.560579 1.03736 1.90739 165 53 34 0.340622 0.04792 -0.938978
-0.551533 1.02831 1.90813 162 32 59 -0.429708 0.308707 -0.848558
-0.530427 1.03736 1.9066 171 33 73 0.107776 0.507266 -0.855024
-0.530427 1.04037 1.90839 171 33 73 0.082114 0.460671 -0.883765
-0.551533 1.03133 1.90881 165 30 61 -0.193555 0.365603 -0.910424
-0.557564 1.00118 1.90816 157 62 51 0.219039 -0.472823 -0.853499
-0.527412 1.03736 1.907 169 33 67 0.00398 0.470929 -0.882162
-0.554548 1.00118 1.90882 157 62 51 0.058919 -0.72571 -0.685473
-0.509321 0.995148 1.90765 201 84 108 0.120678 -0.97662 -0.177907
-0.551533 1.00118 1.90898 152 66 57 -0.039944 -0.855347 -0.516514
-0.527412 1.04037 1.90839 169 33 67 0.006784 0.538618 -0.842523
-0.506306 0.995148 1.90932 201 84 108 -0.036023 -0.960194 -0.277003
-0.548518 1.00118 1.90863 184 123 120 -0.09463 -0.912015 -0.399092
-0.503291 0.995148 1.90735 201 83 107 -0.011231 -0.947115 -0.320697
-0.545503 1.00118 1.9079 175 107 102 -0.218975 -0.928171 -0.300914
-0.500276 0.995148 1.90892 197 81 106 0.278164 -0.828276 -0.486399
-0.524397 1.03736 1.90665 168 31 67 0.031627 0.523912 -0.851185
-0.497261 0.998163 1.90659 197 80 105 0.498186 -0.350812 -0.792932
-0.497261 1.00118 1.90695 197 81 106 0.52366 -0.065984 -0.849368
-0.524397 1.04037 1.90872 168 31 67 0.058062 0.57354 -0.817117
-0.494246 0.998163 1.90883 192 76 98 0.442483 -0.136039 -0.886398
-0.521382 1.03736 1.90702 170 34 69 0.118964 0.407276 -0.905524
-0.494246 1.00118 1.90829 177 61 82 0.341986 -0.13597 -0.929816
-0.521382 1.04037 1.90882 170 34 69 0.077531 0.511703 -0.855657
-0.491231 1.00118 1.9091 183 68 89 0.279412 -0.111503 -0.953675
-0.527412 0.995148 1.90731 195 109 116 -0.108262 -0.98166 0.15692
-0.506306 1.01324 1.90649 153 38 61 0.001364 0.576843 -0.816854
-0.524397 0.995148 1.90912 187 111 111 -0.083985 -0.979824 0.181359
-0.503291 1.01324 1.90647 153 38 61 0.097121 0.569681 -0.816108
-0.518367 1.03736 1.90751 160 30 61 0.143356 0.357695 -0.922769
-0.542488 1.03435 1.90796 163 38 59 -0.462 0.49843 -0.733569
-0.518367 1.04037 1.9091 160 30 61 0.109957 0.481242 -0.869664
-0.494246 1.00419 1.90805 160 45 66 0.397192 -0.118461 -0.910058
-0.515352 1.03736 1.90777 163 35 66 0.313624 0.356046 -0.880268
-0.491231 1.00419 1.9087 156 41 62 0.308664 -0.018745 -0.950986
-0.494246 1.01022 1.90895 153 37 60 0.578308 0.527727 -0.622145
-0.515352 1.01927 1.90741 128 78 86 0.40821 0.3275 -0.85212
-0.512336 1.01927 1.90852 131 62 69 0.404444 0.312175 -0.859635
-0.515352 1.02228 1.90825 108 81 80 0.551929 0.093669 -0.828614
-0.521382 1.03435 1.90648 185 54 88 0.140999 0.189269 -0.971749
-0.512336 1.03133 1.90875 125 86 88 0.52404 0.080949 -0.847838
-0.518367 1.03435 1.90684 167 46 75 0.137226 0.241778 -0.960579
-0.515352 1.03435 1.90737 167 46 75 0.373625 0.184665 -0.909012
-0.512336 1.03435 1.90923 162 43 72 0.520711 0.117486 -0.845611
-0.563594 1.04339 1.9069 168 55 35 0.271226 0.128336 -0.953922
-0.560579 1.04037 1.90773 168 55 35 0.319149 0.080116 -0.944312
-0.557564 1.04037 1.90843 168 56 35 0.183347 0.078924 -0.979875
-0.560579 1.04339 1.90779 168 55 35 0.30931 0.093451 -0.946358
-0.557564 1.04339 1.90869 168 55 35 0.231108 0.111085 -0.966566
-0.563594 1.0464 1.90723 168 55 35 0.268774 0.119309 -0.955786
-0.560579 1.0464 1.90813 168 55 35 0.297061 0.121222 -0.947132
-0.557564 1.0464 1.90915 168 55 35 0.302995 0.130624 -0.943998
-0.563594 1.04942 1.90768 168 55 35 0.278122 0.131742 -0.951469
-0.560579 1.04942 1.90853 168 55 35 0.294629 0.121318 -0.947879
-0.563594 1.05244 1.90808 168 55 35 0.269265 0.133969 -0.953703
-0.560579 1.05244 1.90891 168 55 35 0.277419 0.131409 -0.95172
-0.563594 1.05545 1.90848 168 55 35 0.255011 0.126852 -0.958581
-0.560579 1.05545 1.90936 168 55 35 0.253613 0.104277 -0.961669
-0.542488 1.04037 1.90943 176 36 73 -0.20874 0.424882 -0.880853
-0.539473 1.04745 1.91246 172 34 64 -0.129016 0.208214 -0.969537
-0.557564 0.99558 1.91246 157 62 51 0.399101 -0.614384 -0.680625
-0.554548 0.997663 1.91246 157 62 51 0.346546 -0.600354 -0.72075
-0.497261 0.994439 1.91246 190 75 97 0.097426 -0.967933 -0.231545
-0.552349 0.998163 1.91246 157 62 51 0.070775 -0.651417 -0.755412
-0.494246 0.994536 1.91246 190 75 97 0.112658 -0.970887 -0.211393
-0.508924 1.03736 1.91246 163 34 64 0.553029 0.275727 -0.786215
-0.492407 0.995148 1.91246 190 75 97 0.41164 -0.831165 -0.373788
-0.541998 1.04942 1.91246 172 34 64 0.124925 0.080559 -0.98889
-0.509321 1.03773 1.91246 163 34 64 0.521874 0.619831 -0.586053
-0.491231 0.995852 1.91246 186 73 94 0.618453 -0.697195 -0.362541
-0.551533 0.998207 1.91246 157 64 53 0.001377 -0.756234 -0.6543
-0.537376 1.04942 1.91246 184 43 83 -0.252512 0.281045 -0.925879
-0.489201 0.998163 1.91246 184 71 94 0.760387 -0.574693 -0.302554
-0.548518 0.998157 1.91246 175 107 102 -0.001373 -0.624527 -0.781002
-0.488215 0.999988 1.91246 179 61 83 0.787895 -0.33082 -0.519403
-0.548329 1.05545 1.91246 167 51 34 0.258267 0.043251 -0.965105
-0.548721 0.998163 1.91246 175 107 102 0.032469 -0.67056 -0.741145
-0.487663 1.00118 1.91246 182 65 88 0.808412 -0.417813 -0.414611
-0.548505 0.998163 1.91246 175 107 102 0.279527 -0.669268 -0.688436
-0.548076 1.05847 1.91246 167 50 34 0.243361 0.013187 -0.969846
-0.545503 0.999348 1.91246 185 125 122 0.037424 -0.841354 -0.539187
-0.548518 1.06124 1.91246 167 50 34 0.255959 0.043278 -0.965718
-0.548613 1.06148 1.91246 167 50 34 0.214802 0.115662 -0.969785
-0.539473 0.997813 1.91246 192 118 121 -0.124571 -0.822172 -0.555442
-0.540753 0.998163 1.91246 192 118 121 -0.218773 -0.824607 -0.52169
-0.486712 1.00419 1.91246 156 37 60 0.81937 -0.1373 -0.556581
-0.542488 0.998671 1.91246 192 118 121 -0.217109 -0.887637 -0.406157
-0.542488 1.05038 1.91246 172 54 42 0.149792 0.253188 -0.95575
-0.494246 1.01173 1.91246 153 37 60 0.442073 0.774851 -0.45186
-0.536458 0.997377 1.91246 192 122 122 -0.228883 -0.91697 -0.32677
-0.496313 1.01324 1.91246 153 37 60 0.52554 0.599892 -0.603272
-0.536458 1.05019 1.91246 164 35 59 -0.165118 0.409205 -0.897378
-0.533442 0.99598 1.91246 191 121 121 -0.311577 -0.937477 -0.155102
-0.491231 1.01061 1.91246 153 37 60 0.333977 0.815156 -0.473265
-0.521382 0.994964 1.91246 187 111 111 -0.186848 -0.982383 0.003439
-0.488215 1.00902 1.91246 158 41 64 0.541018 0.652256 -0.530906
-0.522358 0.995148 1.91246 187 111 111 -0.144344 -0.986935 -0.071585
-0.533442 1.05197 1.91246 164 34 63 -0.122879 0.430783 -0.894051
-0.530427 0.995498 1.91246 191 127 126 -0.060229 -0.992079 -0.110231
-0.490555 1.01022 1.91246 158 41 64 0.448691 0.785614 -0.426013
-0.527412 0.99563 1.91246 191 126 125 -0.018738 -0.993104 -0.115733
-0.521382 1.04569 1.91246 174 38 74 0.040622 0.575712 -0.816643
-0.524397 0.99539 1.91246 195 108 116 -0.082188 -0.985069 -0.151274
-0.523117 1.0464 1.91246 174 38 74 0.181154 0.332817 -0.925428
-0.518367 0.99418 1.91246 195 110 116 -0.119957 -0.992171 0.034754
-0.524397 1.04893 1.91246 179 40 78 0.232135 0.148199 -0.961327
-0.515352 0.994232 1.91246 197 95 110 -0.040618 -0.998779 0.02812
-0.52467 1.04942 1.91246 179 40 78 0.162677 0.293913 -0.941887
-0.512336 0.99404 1.91246 200 97 112 0.007158 -0.999095 -0.041927
-0.509321 0.994142 1.91246 200 92 111 -0.077174 -0.976315 -0.202123
-0.511984 1.04037 1.91246 165 34 66 0.576222 0.579601 -0.576222
-0.512336 1.04072 1.91246 164 35 66 0.628975 0.551407 -0.548034
-0.514282 1.04339 1.91246 164 35 66 0.663796 0.492386 -0.562966
-0.518367 1.04569 1.91246 175 40 74 0.135796 0.625257 -0.768514
-0.515352 1.0444 1.91246 175 40 74 0.461927 0.702062 -0.541972
-0.502524 1.02228 1.91246 150 37 62 0.380203 0.278014 -0.88213
-0.530427 1.05116 1.91246 161 31 62 0.09409 0.459218 -0.883327
-0.527412 1.05078 1.91246 174 39 70 0.088366 0.38745 -0.917646
-0.50444 1.02831 1.91246 167 37 73 0.516454 -0.009439 -0.856263
-0.505203 1.03133 1.91246 180 48 83 0.409893 0.194006 -0.891263
-0.506306 1.03256 1.91246 166 50 79 0.368719 0.32588 -0.870545
-0.506306 0.993387 1.91246 199 89 109 -0.131628 -0.93768 -0.321607
-0.503291 0.993292 1.91246 201 90 111 0.023682 -0.953522 -0.300391
-0.507553 1.03435 1.91246 166 50 79 0.519945 0.270122 -0.810365
-0.500276 0.99393 1.91246 198 82 106 0.191944 -0.959718 -0.205181
-0.557564 0.998163 1.90988 157 62 51 0.439476 -0.619945 -0.650023
-0.554548 0.998163 1.91198 157 62 51 0.323187 -0.677231 -0.66099
-0.539473 1.04339 1.91039 185 43 85 -0.214843 0.461236 -0.860874
-0.551533 1.03736 1.90984 168 35 63 0.42774 -0.00654 -0.903878
-0.548518 0.998163 1.91245 175 107 102 0.001376 -0.7663 -0.642481
-0.536458 1.04339 1.90948 185 43 85 -0.243648 0.440382 -0.864118
-0.548518 1.03435 1.91013 172 35 70 -0.001287 0.397643 -0.917539
-0.545503 1.04339 1.91076 178 38 74 0.113768 0.097348 -0.988727
-0.545503 1.03435 1.90967 171 35 69 -0.143641 0.411011 -0.900243
-0.497261 0.995148 1.91049 199 83 109 0.112901 -0.929051 -0.352305
-0.509321 1.03736 1.91219 163 34 64 0.611348 0.260652 -0.747204
-0.542488 1.04339 1.91103 178 38 74 -0.149419 0.361677 -0.920252
-0.548518 1.03736 1.91141 171 35 69 0.178869 0.145886 -0.972997
-0.539473 0.998163 1.91138 192 118 121 -0.254212 -0.944021 -0.21024
-0.545503 1.0464 1.91154 178 38 74 0.257958 0.159052 -0.952974
-0.545503 1.03736 1.91106 171 35 69 -0.223835 0.155768 -0.962099
-0.494246 0.995148 1.91092 190 75 97 0.243473 -0.804858 -0.541224
-0.542488 1.0464 1.91233 178 38 74 0.084357 0.235445 -0.96822
-0.542488 1.03736 1.90976 163 38 59 -0.436081 -0.011857 -0.899829
-0.539473 1.0464 1.91218 185 43 83 -0.206455 0.444102 -0.871866
-0.491231 0.998163 1.90961 186 73 94 0.630029 -0.562465 -0.53544
-0.545503 1.04942 1.91159 179 38 75 0.127313 0.129738 -0.983341
-0.542488 1.04942 1.91221 179 38 75 0.208345 0.148818 -0.966667
-0.488215 1.00118 1.91189 179 61 83 0.676269 -0.268916 -0.685816
-0.509321 1.02228 1.90969 144 87 99 0.279961 0.036084 -0.959333
-0.536458 1.0464 1.91091 184 43 83 -0.240955 0.376954 -0.894341
-0.488215 1.00419 1.91064 161 42 65 0.715628 -0.064795 -0.69547
-0.533442 1.0464 1.91055 187 45 86 -0.031959 0.333653 -0.942154
-0.509321 1.03133 1.91036 117 69 72 0.458567 0.218007 -0.861504
-0.488215 1.00721 1.91109 156 36 60 0.609623 0.275365 -0.743326
-0.536458 1.04942 1.91206 184 43 83 -0.23995 0.372438 -0.896501
-0.533442 1.04942 1.91138 179 39 77 -0.061727 0.345411 -0.936419
-0.491231 1.01022 1.91177 153 37 60 0.421948 0.753595 -0.504039
-0.512336 1.03736 1.90958 162 43 72 0.554593 0.490924 -0.671878
-0.557564 1.05545 1.91008 168 55 35 0.24457 0.07149 -0.966993
-0.548518 1.04037 1.91104 169 36 63 0.166667 -0.117284 -0.979013
-0.548518 1.04942 1.91166 167 51 34 0.139881 0.270436 -0.952522
-0.548518 1.05244 1.91217 167 51 34 0.177959 0.118225 -0.97691
-0.545503 1.04037 1.91095 173 36 71 -0.228427 0.03505 -0.97293
-0.506306 1.0253 1.91165 135 77 85 0.485056 0.022969 -0.874182
-0.548518 1.04339 1.91033 170 37 65 0.209694 -0.027248 -0.977387
-0.548518 1.05545 1.9124 170 53 33 0.24504 0.020521 -0.969296
-0.554548 1.0464 1.90989 169 52 33 0.155859 0.221346 -0.96266
-0.557564 1.05847 1.91031 167 50 34 0.216896 0.062495 -0.974192
-0.551533 1.0464 1.91015 166 51 36 0.092697 0.239997 -0.966338
-0.554548 1.05847 1.91093 167 50 34 0.213041 0.042127 -0.976135
-0.551533 1.05847 1.91159 167 50 34 0.235699 0.042743 -0.970886
-0.557564 1.06148 1.91046 167 50 34 0.200816 0.103526 -0.974143
-0.554548 1.06148 1.91102 167 50 34 0.222247 0.107948 -0.968996
-0.551533 1.06148 1.91185 167 50 34 0.229508 0.086536 -0.969452
-0.548518 1.05847 1.91236 167 50 34 0.244491 0.008348 -0.969616
-0.530427 1.04339 1.90945 170 33 70 0.289476 0.331042 -0.898117
-0.527412 1.04339 1.91047 170 33 70 0.211879 0.350249 -0.912378
-0.524397 1.04339 1.91077 170 34 69 0.05951 0.488538 -0.870511
-0.521382 1.04339 1.91088 170 37 71 0.020548 0.538357 -0.842467
-0.530427 1.0464 1.91057 187 46 88 0.140687 0.323716 -0.935636
-0.527412 1.0464 1.91133 178 36 76 0.217002 0.23065 -0.948531
-0.530427 1.04942 1.91155 181 41 78 0.10263 0.318554 -0.942333
-0.527412 1.04942 1.91197 187 47 85 0.143008 0.27666 -0.950267
-0.524397 1.0464 1.91213 176 37 76 0.204158 0.281933 -0.937461
-0.515352 1.04037 1.91 163 35 66 0.515893 0.388954 -0.763262
-0.518367 1.04339 1.91068 166 39 71 0.081574 0.553842 -0.828616
-0.515352 1.04339 1.9113 163 35 66 0.335378 0.487967 -0.80586
-0.512336 1.04037 1.91215 162 35 66 0.449983 0.542968 -0.709014
-0.557564 1.07456 1.91246 167 51 39 0.22761 0.179692 -0.957029
-0.569624 1.05545 1.90682 168 55 35 0.255219 0.144139 -0.956079
-0.569624 1.06148 1.90777 168 55 35 0.216376 0.14641 -0.96527
-0.563594 1.06148 1.90916 168 55 35 0.220729 0.116106 -0.9684
-0.563594 1.06751 1.90999 167 51 39 0.204918 0.145634 -0.967884
-0.557564 1.06751 1.91122 167 51 39 0.206947 0.142677 -0.967893
-0.557564 1.07354 1.91227 167 51 39 0.207435 0.165687 -0.964115
-0.555973 0.992133 1.91547 167 55 34 0.224419 -0.50227 -0.835081
-0.521382 1.05338 1.91547 164 36 61 0.639283 0.432309 -0.635945
-0.539473 1.0596 1.91547 169 52 32 0.299471 0.247888 -0.921341
-0.554548 0.992601 1.91547 167 55 34 0.042241 -0.470097 -0.881603
-0.522679 1.05545 1.91547 164 36 61 0.465711 0.41703 -0.780512
-0.540566 1.06148 1.91547 169 52 32 0.395332 0.176821 -0.901358
-0.551533 0.992869 1.91547 167 54 31 0.113954 -0.514957 -0.849608
-0.548518 0.993854 1.91547 164 69 56 0.131332 -0.416592 -0.899557
-0.533442 1.057 1.91547 158 38 59 0.029515 0.345198 -0.938066
-0.546723 0.995148 1.91547 164 69 56 0.238696 -0.392885 -0.888068
-0.545503 0.99572 1.91547 160 57 43 0.097449 -0.58615 -0.80432
-0.530427 1.05682 1.91547 158 38 59 -0.065765 0.387877 -0.919362
-0.542488 0.995921 1.91547 159 60 46 -0.083101 -0.67793 -0.730415
-0.539473 0.995491 1.91547 158 71 60 -0.104379 -0.754175 -0.648325
-0.536458 0.99522 1.91547 172 94 86 -0.058252 -0.805577 -0.58962
-0.533442 0.995246 1.91547 184 122 116 -0.194512 -0.89066 -0.410961
-0.515352 1.04616 1.91547 176 37 74 0.593948 0.587179 -0.549952
-0.530427 0.994492 1.91547 177 108 101 -0.129246 -0.893362 -0.430348
-0.515602 1.0464 1.91547 176 37 74 0.532555 0.60018 -0.596799
-0.532997 0.995148 1.91547 177 108 101 -0.191968 -0.940505 -0.280356
-0.518367 1.04944 1.91547 176 37 74 0.605037 0.497175 -0.62189
-0.518352 1.04942 1.91547 176 37 74 0.552716 0.552716 -0.623707
-0.527412 0.994398 1.91547 177 108 101 -0.017389 -0.884174 -0.466833
-0.520821 1.05244 1.91547 176 37 74 0.644607 0.463782 -0.607773
-0.524397 0.994632 1.91547 191 123 122 0.111736 -0.917337 -0.382109
-0.521382 0.994758 1.91547 184 115 111 0.076492 -0.992111 -0.099325
-0.518367 0.994599 1.91547 197 108 115 -0.087944 -0.988487 0.123121
-0.515352 0.994352 1.91547 197 108 115 -0.076881 -0.97749 0.196474
-0.512336 0.994192 1.91547 198 102 115 -0.110417 -0.986625 0.119915
-0.509321 0.993504 1.91547 200 99 115 -0.190061 -0.980999 0.038957
-0.497261 1.02449 1.91547 150 37 62 0.493861 0.264734 -0.828262
-0.497756 1.0253 1.91547 150 37 62 0.377281 0.230479 -0.896961
-0.492266 1.01324 1.91547 157 35 63 0.59366 0.449843 -0.66724
-0.494042 1.01625 1.91547 157 35 63 0.673829 0.355769 -0.647598
-0.506306 0.993028 1.91547 197 104 116 -0.143902 -0.989186 0.028327
-0.494246 1.01699 1.91547 166 42 72 0.630104 0.226712 -0.742678
-0.503291 0.992717 1.91547 197 102 115 0.071812 -0.995428 -0.062974
-0.495219 1.01927 1.91547 166 42 72 0.454481 0.18091 -0.872192
-0.500276 0.993632 1.91547 197 88 108 0.19878 -0.962306 -0.185616
-0.496173 1.02228 1.91547 165 36 68 0.57053 0.224192 -0.790084
-0.497261 0.993958 1.91547 197 87 107 0.104812 -0.977833 -0.181263
-0.49969 1.02831 1.91547 163 35 66 0.214254 0.020123 -0.976571
-0.494246 0.994222 1.91547 196 81 104 0.224193 -0.967234 -0.119143
-0.500276 1.03061 1.91547 178 41 79 0.554923 0.05198 -0.830276
-0.491681 0.995148 1.91547 195 81 104 0.20743 -0.950382 -0.231834
-0.500417 1.03133 1.91547 178 41 79 0.608933 0.023688 -0.792868
-0.491231 0.995348 1.91547 197 80 104 0.686111 -0.713253 -0.143254
-0.497261 1.02899 1.91547 169 37 71 -0.057418 -0.393914 -0.917352
-0.500192 1.03133 1.91547 169 37 71 -0.151462 0.007854 -0.988432
-0.488622 0.998163 1.91547 194 80 101 0.719285 -0.659995 -0.216878
-0.488215 0.998652 1.91547 192 77 99 0.78889 -0.538096 -0.296826
-0.503291 1.03661 1.91547 159 33 60 0.452854 0.576511 -0.680116
-0.504385 1.03736 1.91547 159 33 60 0.3995 0.658098 -0.638206
-0.486122 1.00118 1.91547 186 70 95 0.754817 -0.455521 -0.471966
-0.500431 1.03435 1.91547 174 42 76 0.518615 0.363515 -0.773883
-0.497261 1.03319 1.91547 161 36 63 0.206609 0.663323 -0.719247
-0.506306 1.03833 1.91547 160 32 62 0.421879 0.709749 -0.564159
-0.557564 0.992133 1.91507 167 55 34 0.354414 -0.53243 -0.768706
-0.557564 0.995148 1.91292 167 55 34 0.325059 -0.53963 -0.776619
-0.524397 1.04942 1.91252 178 43 76 0.288002 0.320495 -0.902407
-0.554548 0.995148 1.91425 167 55 34 0.177809 -0.515496 -0.838241
-0.527412 1.05244 1.91322 178 43 76 0.027989 0.441164 -0.89699
-0.539473 1.04942 1.91281 181 38 77 0.039485 0.206995 -0.977545
-0.524397 1.05244 1.91349 178 43 76 0.215214 0.385042 -0.897455
-0.551533 0.995148 1.91415 167 54 31 0.065699 -0.501826 -0.86247
-0.521382 1.04942 1.91334 175 41 76 0.422294 0.27289 -0.864407
-0.521382 1.05244 1.91464 175 41 76 0.374322 0.383719 -0.844182
-0.548518 0.995148 1.91487 164 69 56 0.231589 -0.570424 -0.788025
-0.545503 1.05244 1.91273 167 51 34 0.153122 0.194298 -0.968918
-0.551533 0.998163 1.91251 166 52 31 0.001327 -0.484515 -0.874782
-0.545503 1.05545 1.91322 167 51 39 0.23677 0.047845 -0.970387
-0.533442 1.05545 1.91486 158 38 59 0.034009 0.488362 -0.871978
-0.545503 0.998163 1.91355 160 57 43 0.120208 -0.654465 -0.746476
-0.545503 1.05847 1.91303 168 50 31 0.29996 0.041767 -0.953037
-0.530427 1.05545 1.91484 158 38 59 -0.041051 0.401245 -0.91505
-0.542488 0.998163 1.91329 159 60 46 -0.152616 -0.729835 -0.666371
-0.548518 1.06148 1.91248 168 50 31 0.292379 0.174329 -0.940279
-0.530427 0.995148 1.91373 177 108 101 -0.112374 -0.95055 -0.289528
-0.518367 1.04942 1.91546 176 37 74 0.347565 0.403674 -0.846313
-0.545503 1.06148 1.91333 168 50 31 0.316102 0.146419 -0.937358
-0.527412 0.995148 1.9139 177 108 101 -0.011379 -0.9394 -0.342634
-0.497261 1.01625 1.91383 162 38 68 0.412118 0.33436 -0.847563
-0.542488 1.05244 1.9131 164 36 51 0.140929 0.251564 -0.957525
-0.500276 1.01927 1.91331 162 38 69 0.447412 0.130078 -0.884818
-0.524397 0.995148 1.91363 191 123 122 -0.010783 -0.969306 -0.245621
-0.539473 1.05244 1.91358 164 36 51 0.065516 0.299316 -0.951902
-0.497261 1.01927 1.9147 162 38 68 0.390426 0.145177 -0.909116
-0.503291 1.0253 1.91339 168 37 75 0.399773 0.155072 -0.903401
-0.539473 1.05545 1.91435 166 35 57 0.170661 0.251289 -0.952748
-0.500276 1.02228 1.9133 150 37 62 0.419644 0.150384 -0.895144
-0.536458 1.05244 1.91361 166 34 61 -0.12873 0.420141 -0.898282
-0.497261 1.02228 1.91479 150 37 62 0.434696 0.132547 -0.89077
-0.500276 1.0253 1.91427 150 37 62 0.354611 0.285784 -0.890269
-0.533442 1.05244 1.91277 166 34 61 -0.009478 0.523998 -0.851667
-0.536458 1.05545 1.91487 167 34 62 0.006403 0.377777 -0.925874
-0.542488 1.05847 1.91409 165 51 34 0.324143 0.102712 -0.940416
-0.503291 1.02831 1.91327 176 38 80 0.561264 0.004077 -0.827627
-0.503291 1.03133 1.91319 174 38 78 0.526215 0.07801 -0.846766
-0.500276 1.02831 1.91515 169 37 71 0.44357 0.154599 -0.882805
-0.497261 1.03133 1.91447 169 37 71 -0.029133 0.001005 -0.999575
-0.521382 1.0464 1.91279 175 36 73 0.293882 0.369236 -0.881645
-0.506306 1.03435 1.91312 179 49 84 0.303207 0.336067 -0.891698
-0.503291 1.03435 1.91391 170 37 71 0.364239 0.364239 -0.857123
-0.506306 1.03736 1.91427 167 38 69 0.426632 0.446098 -0.786754
-0.518367 1.0464 1.91314 176 37 74 0.326652 0.645179 -0.690683
-0.545325 0.989118 1.91849 169 57 37 0.318537 -0.635457 -0.703369
-0.542488 0.990557 1.91849 169 57 37 0.417562 -0.663774 -0.620521
-0.540362 0.992133 1.91849 169 57 37 0.439035 -0.669402 -0.59929
-0.539473 0.992635 1.91849 167 57 37 0.197084 -0.802086 -0.563752
-0.536458 0.993756 1.91849 166 68 55 0.133325 -0.908011 -0.397167
-0.533442 0.993666 1.91849 165 65 50 -0.179523 -0.885941 -0.427645
-0.509321 1.0455 1.91849 172 39 70 0.560259 0.577185 -0.594111
-0.510854 1.0464 1.91849 172 39 70 0.417424 0.613662 -0.670206
-0.530427 0.992931 1.91849 177 108 101 -0.129101 -0.854385 -0.503348
-0.512336 1.04738 1.91849 171 39 70 0.447973 0.571208 -0.68778
-0.527412 0.992485 1.91849 177 108 100 0.05401 -0.862769 -0.502705
-0.514924 1.04942 1.91849 171 39 70 0.45299 0.613459 -0.64689
-0.524397 0.993457 1.91849 171 93 85 0.264339 -0.909852 -0.319836
-0.521382 0.994504 1.91849 190 128 125 0.332329 -0.916423 -0.222992
-0.4852 0.999469 1.91849 173 58 78 0.550051 -0.523137 -0.650978
-0.518367 1.05226 1.91849 169 33 68 0.534714 0.619054 -0.575198
-0.51924 0.995148 1.91849 197 108 115 0.215358 -0.975728 -0.039703
-0.518526 1.05244 1.91849 169 33 68 0.690358 0.503143 -0.519858
-0.483608 1.00118 1.91849 173 58 78 0.52369 -0.346441 -0.778284
-0.515352 1.0497 1.91849 169 35 68 0.507599 0.63239 -0.585172
-0.512336 0.994983 1.91849 197 105 115 -0.129429 -0.983421 0.12701
-0.520561 1.05545 1.91849 162 35 61 0.738284 0.510358 -0.440989
-0.51406 0.995148 1.91849 197 105 115 -0.074411 -0.986238 0.14764
-0.509321 0.994387 1.91849 198 102 115 -0.193855 -0.955907 0.220594
-0.518367 0.995314 1.91849 197 99 112 0.018902 -0.999821 0.000995
-0.533442 1.06735 1.91849 170 53 30 0.349352 0.087003 -0.932944
-0.515352 0.995223 1.91849 197 99 112 -0.029133 -0.999575 0.001005
-0.533491 1.06751 1.91849 170 53 30 0.51621 0.211661 -0.829895
-0.53474 1.07053 1.91849 170 53 28 0.500582 0.148266 -0.852898
-0.53514 1.07354 1.91849 170 53 28 0.42327 0.188934 -0.886085
-0.49111 1.01625 1.91849 159 35 64 0.776002 0.431112 -0.460395
-0.493125 1.02228 1.91849 156 32 62 0.804939 0.119196 -0.581263
-0.493469 1.0253 1.91849 168 38 71 0.782336 0.004125 -0.622844
-0.506306 0.993606 1.91849 197 102 115 -0.173646 -0.958368 0.226668
-0.503291 0.993299 1.91849 197 102 115 -0.134439 -0.969243 0.20614
-0.500276 0.992765 1.91849 197 87 107 0.003008 -0.999681 -0.025067
-0.497261 0.993218 1.91849 196 86 105 0.167995 -0.973868 -0.152838
-0.497261 1.03482 1.91849 162 36 63 0.577789 0.728375 -0.368279
-0.494246 0.993948 1.91849 195 81 104 0.120102 -0.972198 -0.201014
-0.491231 0.993666 1.91849 195 81 104 0.234203 -0.96167 -0.142615
-0.488406 0.995148 1.91849 197 87 107 0.535241 -0.756496 -0.375808
-0.488215 0.995306 1.91849 192 77 99 0.760873 -0.612107 -0.2154
-0.551533 0.987567 1.91849 173 63 58 0.105654 -0.539851 -0.835104
-0.486185 0.998163 1.91849 195 80 103 0.700955 -0.598698 -0.387587
-0.548518 0.988308 1.91849 173 63 58 0.19902 -0.621746 -0.757511
-0.545503 0.98903 1.91849 173 63 58 0.289765 -0.635563 -0.715609
-0.503291 1.03898 1.91849 160 32 62 0.455151 0.78882 -0.413037
-0.505728 1.04037 1.91849 160 32 62 0.462992 0.749684 -0.472877
-0.506306 1.04092 1.91849 160 32 62 0.697355 0.567537 -0.437719
-0.507741 1.04339 1.91849 160 32 62 0.771646 0.498727 -0.394758
-0.554548 0.989118 1.91753 167 55 34 0.106723 -0.482386 -0.869433
-0.554548 0.992133 1.91569 167 55 34 0.101442 -0.507212 -0.85583
-0.551533 0.989118 1.91773 167 55 34 0.079533 -0.467431 -0.880445
-0.521382 1.05545 1.9169 160 34 56 0.632167 0.55125 -0.544507
-0.551533 0.992133 1.91601 167 55 34 0.092452 -0.510618 -0.854823
-0.548518 0.989118 1.91796 164 69 56 0.106132 -0.459905 -0.881603
-0.548518 0.992133 1.91646 164 69 56 0.062826 -0.504004 -0.861414
-0.545503 0.989118 1.91845 164 69 56 0.037241 -0.528267 -0.848261
-0.545503 0.992133 1.91619 164 69 56 0.145007 -0.440763 -0.885833
-0.545503 0.995148 1.91583 164 69 56 0.160858 -0.24594 -0.955844
-0.515352 1.04942 1.91818 169 35 68 0.549731 0.570029 -0.610625
-0.542488 0.992133 1.917 169 57 37 0.217444 -0.457381 -0.862276
-0.515352 1.0464 1.91577 176 37 74 0.470005 0.553636 -0.687446
-0.542488 0.995148 1.91593 169 57 37 -0.006458 -0.401691 -0.915752
-0.512336 1.0464 1.9178 170 39 70 0.412234 0.530485 -0.740708
-0.539473 0.995148 1.9158 167 57 37 0.132772 -0.637008 -0.759337
-0.536458 0.995148 1.91562 166 68 55 0.090054 -0.844794 -0.52746
-0.533442 0.995148 1.91569 165 65 50 -0.079159 -0.887415 -0.454123
-0.536458 1.0645 1.91704 166 53 32 0.288238 -0.031195 -0.957051
-0.4852 1.00118 1.91714 173 58 78 0.730397 -0.370917 -0.573533
-0.539473 1.07053 1.91625 170 53 28 0.245145 0.103962 -0.963896
-0.518367 0.995148 1.9169 197 108 115 -0.022704 -0.973898 0.225849
-0.536458 1.07053 1.91735 170 53 28 0.35107 0.1706 -0.920677
-0.497261 1.0253 1.91569 150 37 62 0.548855 0.185976 -0.814967
-0.539473 1.07354 1.91688 170 53 28 0.287544 0.217411 -0.932765
-0.491231 1.01625 1.91833 154 34 61 0.669637 0.376774 -0.640022
-0.536458 1.07354 1.91796 170 53 28 0.341074 0.204074 -0.917618
-0.494246 1.01927 1.916 166 39 69 0.70759 0.192699 -0.679841
-0.494246 1.02228 1.91696 169 39 73 0.660095 0.206571 -0.722221
-0.494246 1.0253 1.91778 165 36 66 0.546882 -0.075285 -0.833818
-0.515352 0.995148 1.9179 197 108 115 -0.10302 -0.955865 0.275153
-0.497261 1.02831 1.91622 168 35 68 0.284542 -0.180072 -0.9416
-0.500276 1.03133 1.91553 169 40 73 0.000999 0.022971 -0.999736
-0.491231 0.995148 1.91581 195 81 104 0.532898 -0.657297 -0.532898
-0.503291 1.03736 1.91617 167 38 69 0.418946 0.713698 -0.561354
-0.488215 0.998163 1.91602 192 77 99 0.630029 -0.53544 -0.562465
-0.500276 1.03435 1.91556 162 36 63 0.338682 0.572031 -0.747044
-0.497261 1.03435 1.91769 162 36 63 0.362802 0.825414 -0.432511
-0.494246 1.02831 1.9161 160 34 62 0.360096 -0.511885 -0.779939
-0.506306 1.04037 1.91804 160 32 62 0.54673 0.526543 -0.651029
-0.545503 1.0856 1.91785 164 40 48 0.274392 0.194419 -0.941759
-0.527412 0.988825 1.9215 178 58 31 0.001344 -0.85078 -0.525521
-0.529779 0.989118 1.9215 178 58 31 -0.175932 -0.696078 -0.696078
-0.526268 0.989118 1.9215 180 59 32 0.534168 -0.635272 -0.557759
-0.541281 0.989118 1.9215 172 61 41 0.453179 -0.536179 -0.712138
-0.539473 0.990737 1.9215 172 61 41 0.454011 -0.618193 -0.641647
-0.537704 0.992133 1.9215 172 58 36 0.430171 -0.689271 -0.582974
-0.536458 0.992586 1.9215 170 58 37 0.094327 -0.917294 -0.386877
-0.533442 0.992569 1.9215 172 58 36 -0.074431 -0.916175 -0.393806
-0.530427 0.989714 1.9215 171 59 40 -0.445135 -0.477986 -0.757222
-0.532701 0.992133 1.9215 171 59 40 -0.446619 -0.610546 -0.654037
-0.524484 0.992133 1.9215 171 59 40 0.546417 -0.580251 -0.603935
-0.524397 0.992227 1.9215 168 86 75 0.340685 -0.836799 -0.428604
-0.518367 1.05485 1.9215 169 36 67 0.598499 0.608615 -0.520947
-0.521382 0.993566 1.9215 187 125 120 0.316692 -0.790933 -0.523575
-0.519257 1.05545 1.9215 169 36 67 0.620847 0.604022 -0.499706
-0.515352 1.0526 1.9215 165 34 60 0.388173 0.335592 -0.858312
-0.518367 0.994589 1.9215 187 126 121 0.174829 -0.770767 -0.612661
-0.515352 0.994689 1.9215 173 90 80 0.071084 -0.873911 -0.48086
-0.512336 0.994933 1.9215 186 118 114 0.046653 -0.957026 -0.286225
-0.509321 0.994823 1.9215 186 118 114 -0.047101 -0.995685 -0.079961
-0.4852 0.997287 1.9215 187 74 95 0.31872 -0.883655 -0.342888
-0.482185 0.997944 1.9215 187 74 95 0.29262 -0.928749 -0.227593
-0.509321 1.04719 1.9215 171 36 70 0.782664 0.593482 -0.187656
-0.481962 0.998163 1.9215 186 76 93 0.552915 -0.667195 -0.499136
-0.527412 1.07193 1.9215 172 55 29 0.245116 0.464351 -0.851056
-0.47917 1.00098 1.9215 185 72 93 0.567016 -0.567016 -0.597483
-0.529706 1.07354 1.9215 172 55 29 0.342543 0.36712 -0.864805
-0.479017 1.00118 1.9215 182 70 89 0.95387 -0.158756 -0.25481
-0.524397 1.07083 1.9215 171 55 30 0.21264 0.543073 -0.812315
-0.47917 1.00483 1.9215 159 42 57 0.733414 0.426864 -0.529047
-0.481433 1.00721 1.9215 159 42 57 0.635017 0.454062 -0.624964
-0.478936 1.00419 1.9215 164 42 62 0.983736 0.070182 -0.165344
-0.506306 0.994451 1.9215 182 100 100 -0.105645 -0.982373 0.154217
-0.503291 0.993929 1.9215 182 100 100 -0.157981 -0.96972 0.186238
-0.500276 0.993246 1.9215 196 103 115 -0.156913 -0.950868 0.266887
-0.497261 1.03572 1.9215 157 34 60 0.65891 0.74657 -0.092043
-0.497261 0.992936 1.9215 196 98 111 -0.003295 -0.991705 0.128493
-0.499236 1.03736 1.9215 157 34 60 0.612634 0.772977 -0.164882
-0.491231 1.02596 1.9215 163 35 69 0.906506 0.17901 -0.382365
-0.494246 0.993417 1.9215 197 91 110 0.158264 -0.98716 -0.021633
-0.491815 1.02831 1.9215 163 35 69 0.96638 0.203653 -0.156956
-0.491231 0.994103 1.9215 197 88 110 0.313571 -0.94596 0.082657
-0.489029 0.995148 1.9215 197 97 112 0.445088 -0.894234 0.04735
-0.488215 0.995689 1.9215 199 87 108 0.533493 -0.82938 -0.165876
-0.503291 1.04015 1.9215 161 31 58 0.552103 0.783068 -0.286334
-0.503575 1.04037 1.9215 161 31 58 0.567076 0.737035 -0.367701
-0.506306 1.04278 1.9215 161 31 58 0.651021 0.723183 -0.230603
-0.506846 1.04339 1.9215 161 31 58 0.82078 0.535555 -0.198747
-0.500276 1.03805 1.9215 160 33 61 0.55503 0.812128 -0.179969
-0.508748 1.0464 1.9215 174 33 73 0.832795 0.545129 -0.096368
-0.527412 0.989118 1.92128 178 58 31 0.298721 -0.523156 -0.798169
-0.542488 0.989118 1.9203 172 61 41 0.427496 -0.613798 -0.663701
-0.539473 0.992133 1.91942 172 61 41 0.459875 -0.778374 -0.427375
-0.518367 1.05244 1.91871 165 34 60 0.59354 0.600304 -0.536046
-0.530427 0.992133 1.91959 171 59 40 -0.304186 -0.706549 -0.638952
-0.515352 1.05244 1.92143 167 32 63 0.507512 0.635655 -0.5817
-0.527412 0.992133 1.91897 174 58 35 0.196531 -0.685536 -0.701011
-0.4852 1.01022 1.9206 154 35 61 0.517064 0.577697 -0.631593
-0.518367 0.995148 1.91999 187 126 121 0.157367 -0.958751 -0.236712
-0.515352 0.995148 1.91968 173 90 80 -0.003344 -0.98861 -0.150465
-0.533442 1.06751 1.91852 169 51 29 0.266642 0.190068 -0.944869
-0.4852 0.998163 1.91985 187 74 95 0.382113 -0.788411 -0.482076
-0.533442 1.07053 1.91913 169 51 29 0.354284 0.173613 -0.91888
-0.482185 0.998163 1.92096 187 74 95 0.398202 -0.613 -0.682397
-0.482185 1.00118 1.91933 188 73 96 0.562039 -0.230699 -0.794286
-0.509321 1.0464 1.91984 171 36 70 0.698557 0.606512 -0.379686
-0.533442 1.07354 1.91921 169 51 29 0.476897 0.159944 -0.864284
-0.47917 1.00118 1.92128 185 72 93 0.563273 -0.075578 -0.822807
-0.482185 1.00419 1.91911 180 60 83 0.594724 0.232582 -0.769551
-0.47917 1.00419 1.92121 179 62 83 0.581753 0.001362 -0.813364
-0.482185 1.00721 1.92074 161 39 63 0.759675 0.285077 -0.584488
-0.491231 1.0253 1.92135 156 31 63 0.804439 0.061223 -0.590871
-0.500276 1.03736 1.91864 157 34 60 0.552444 0.804814 -0.216977
-0.530427 1.07354 1.92112 173 55 29 0.430834 0.208755 -0.877954
-0.533442 0.987005 1.92452 178 58 31 0.028382 -0.474392 -0.879856
-0.530427 0.986756 1.92452 178 58 31 -0.026693 -0.689795 -0.723512
-0.527412 0.987121 1.92452 178 58 31 0.193741 -0.794796 -0.575121
-0.4852 0.996358 1.92452 192 80 100 0.302685 -0.933161 -0.193886
-0.482185 0.997478 1.92452 192 80 100 0.334969 -0.912101 -0.236363
-0.480089 0.998163 1.92452 187 74 95 0.334759 -0.901048 -0.275771
-0.47917 0.99866 1.92452 186 73 94 0.750171 -0.554899 -0.359626
-0.478385 1.00118 1.92452 181 70 89 0.973835 -0.082906 -0.211596
-0.478721 1.00419 1.92452 172 50 73 0.960937 0.093656 -0.260441
-0.524397 0.988783 1.92452 177 56 29 0.311646 -0.657202 -0.686267
-0.478935 1.00721 1.92452 159 37 60 0.91159 0.112388 -0.395439
-0.523192 0.989118 1.92452 178 58 31 0.258898 -0.678216 -0.687746
-0.521382 0.989336 1.92452 169 60 42 0.239048 -0.595275 -0.76714
-0.518367 0.990942 1.92452 168 61 44 0.483237 -0.776109 -0.405138
-0.516739 0.992133 1.92452 173 90 80 0.276207 -0.787585 -0.550836
-0.515352 0.992673 1.92452 171 95 86 0.229075 -0.848034 -0.477873
-0.512336 0.993622 1.92452 184 118 114 0.188981 -0.904511 -0.38229
-0.509321 0.994347 1.92452 190 122 121 0.13926 -0.942371 -0.304209
-0.509321 1.04769 1.92452 171 36 70 0.873206 0.426867 -0.235151
-0.497261 1.0358 1.92452 157 34 60 0.706917 0.704026 -0.067945
-0.498989 1.03736 1.92452 157 34 60 0.638944 0.764113 -0.088783
-0.506306 0.994974 1.92452 182 100 100 0.005991 -0.966871 -0.255196
-0.503291 0.994219 1.92452 182 100 100 -0.084189 -0.990661 -0.107254
-0.500276 0.994462 1.92452 195 109 116 -0.024008 -0.98663 0.161199
-0.497261 0.993652 1.92452 196 101 112 -0.135788 -0.945136 0.297119
-0.494246 0.9936 1.92452 197 119 126 0.067662 -0.973103 0.220209
-0.506306 1.043 1.92452 161 31 58 0.613338 0.779667 -0.126232
-0.491231 0.994201 1.92452 197 101 114 0.285394 -0.956007 0.067829
-0.506664 1.04339 1.92452 161 31 58 0.824065 0.562186 -0.06974
-0.48876 0.995148 1.92452 197 97 112 0.302673 -0.952859 0.021175
-0.503291 1.04084 1.92452 161 31 58 0.555441 0.808053 -0.196307
-0.500276 1.03842 1.92452 160 33 61 0.635819 0.746664 -0.195518
-0.502632 1.04037 1.92452 160 33 61 0.606554 0.757017 -0.242935
-0.488215 0.99538 1.92452 199 87 108 0.350143 -0.932374 -0.089884
-0.508655 1.0464 1.92452 173 33 72 0.838024 0.52579 -0.145807
-0.533442 0.989118 1.92309 178 58 31 -0.19942 -0.487303 -0.850157
-0.530427 0.989118 1.92209 178 58 31 -0.133282 -0.744283 -0.65443
-0.524397 0.989118 1.92406 177 56 29 0.553597 -0.647826 -0.523309
-0.539473 0.989118 1.92278 172 61 41 0.344403 -0.46185 -0.817363
-0.518367 1.05545 1.92189 165 34 60 0.215166 0.526471 -0.822515
-0.536458 0.989118 1.92353 172 58 36 0.12873 -0.420141 -0.898282
-0.515352 1.05545 1.92251 163 34 57 0.399376 0.464052 -0.790667
-0.536458 0.992133 1.92234 172 58 36 0.011981 -0.469932 -0.882621
-0.47917 1.00721 1.92402 169 50 71 0.835307 0.375967 -0.401136
-0.533442 0.992133 1.92199 172 58 36 -0.19756 -0.408292 -0.891217
-0.518367 1.05847 1.92429 162 36 59 0.441684 0.353031 -0.824794
-0.524397 0.992133 1.92164 171 56 34 0.253959 -0.623066 -0.739793
-0.521382 0.992133 1.92252 169 60 42 0.228812 -0.586818 -0.776717
-0.518367 0.992133 1.92363 168 61 44 0.292321 -0.586239 -0.755561
-0.527412 1.07354 1.92248 169 51 29 0.336277 0.34845 -0.874929
-0.524397 1.07354 1.92339 172 56 30 0.342217 0.47592 -0.810178
-0.503291 1.04037 1.92233 161 31 58 0.605846 0.784474 -0.132482
-0.553067 0.977058 1.92452 173 63 58 0.236926 -0.403817 -0.883628
-0.551533 0.978028 1.92452 173 63 58 0.281816 -0.441974 -0.851609
-0.545503 0.98188 1.92452 173 63 58 0.284288 -0.437956 -0.852863
-0.543767 0.983088 1.92452 173 63 58 0.333004 -0.501896 -0.798254
-0.539473 0.985414 1.92452 173 63 58 0.235759 -0.47608 -0.84721
-0.557564 0.983088 1.92037 169 66 75 0.219776 -0.444036 -0.868637
-0.551533 0.983088 1.92182 173 63 58 0.212253 -0.526815 -0.823052
-0.545503 0.983088 1.92386 173 63 58 0.284056 -0.576046 -0.766475
-0.533442 1.09163 1.92314 164 40 48 0.308263 0.076741 -0.948201
-0.531424 0.983088 1.92753 178 58 31 0.115585 -0.572071 -0.812019
-0.530427 0.98339 1.92753 178 58 31 0.182828 -0.662176 -0.726703
-0.527412 0.98428 1.92753 178 58 31 0.247812 -0.680299 -0.68977
-0.524397 0.985623 1.92753 178 58 31 0.376346 -0.711606 -0.593279
-0.4852 1.01998 1.92753 161 33 62 0.690073 0.556403 -0.462834
-0.523674 0.986103 1.92753 178 58 31 0.466723 -0.684192 -0.560402
-0.521382 0.987614 1.92753 178 58 31 0.469675 -0.71862 -0.512826
-0.487398 1.02228 1.92753 161 33 62 0.713366 0.497195 -0.493869
-0.488215 1.02427 1.92753 163 36 68 0.861688 0.292331 -0.414773
-0.519737 0.989118 1.92753 178 58 31 0.605974 -0.713775 -0.351171
-0.488573 1.0253 1.92753 163 36 68 0.802236 0.511089 -0.308552
-0.497261 1.03624 1.92753 156 34 60 0.749132 0.631743 -0.199254
-0.518367 0.990018 1.92753 173 59 40 0.319414 -0.879525 -0.352718
-0.498241 1.03736 1.92753 156 34 60 0.695809 0.680103 -0.230889
-0.515352 0.990812 1.92753 172 57 39 0.285357 -0.846816 -0.448859
-0.512336 0.992023 1.92753 162 64 54 0.308848 -0.829342 -0.465623
-0.51164 0.992133 1.92753 169 82 72 0.089413 -0.855807 -0.50951
-0.509321 0.992365 1.92753 175 109 103 0.146931 -0.823704 -0.547652
-0.490891 1.02831 1.92753 160 33 63 0.734227 0.588354 -0.338749
-0.482185 1.01484 1.92753 165 36 65 0.728072 0.399371 -0.557148
-0.506306 0.992992 1.92753 186 127 121 0.115503 -0.814367 -0.568741
-0.483188 1.01625 1.92753 165 36 65 0.672273 0.37312 -0.639399
-0.503291 0.993276 1.92753 185 127 120 0.147603 -0.892786 -0.425614
-0.481353 1.01324 1.92753 163 36 62 0.735959 0.528508 -0.423135
-0.500276 0.994584 1.92753 187 126 122 0.281979 -0.890697 -0.356577
-0.484709 1.01927 1.92753 163 36 62 0.728225 0.469448 -0.499307
-0.497261 0.99483 1.92753 194 113 118 0.057026 -0.99405 0.092808
-0.494246 0.994615 1.92753 196 108 117 -0.019949 -0.895046 0.445528
-0.503291 1.04155 1.92753 162 33 58 0.540184 0.749078 -0.383515
-0.491231 0.994696 1.92753 197 103 115 0.093974 -0.986131 0.136797
-0.505548 1.04339 1.92753 162 33 58 0.59955 0.609683 -0.518484
-0.488215 0.995126 1.92753 197 94 110 0.116732 -0.992774 0.027793
-0.500276 1.03961 1.92753 163 31 62 0.683858 0.657991 -0.315254
-0.488112 0.995148 1.92753 197 101 113 0.15971 -0.983475 -0.085259
-0.501207 1.04037 1.92753 163 31 62 0.556584 0.783632 -0.275927
-0.4852 0.995876 1.92753 201 91 111 0.213137 -0.963693 -0.160834
-0.506306 1.04407 1.92753 170 34 67 0.707388 0.52097 -0.477695
-0.50776 1.0464 1.92753 170 34 67 0.812487 0.331013 -0.47989
-0.482185 0.996423 1.92753 198 88 108 0.303065 -0.939366 -0.160446
-0.47917 0.99771 1.92753 192 83 101 0.443255 -0.885075 -0.142014
-0.508448 1.04942 1.92753 167 34 66 0.653838 0.079736 -0.752421
-0.478708 0.998163 1.92753 191 83 101 0.848014 -0.485227 -0.213137
-0.477697 1.00118 1.92753 184 75 94 0.901212 -0.264021 -0.34367
-0.477607 1.00419 1.92753 170 50 72 0.93145 0.051092 -0.360265
-0.47917 1.01031 1.92753 160 33 58 0.854885 0.448088 -0.261512
-0.479092 1.01022 1.92753 162 41 62 0.882204 0.457386 -0.111869
-0.533442 0.983088 1.92722 178 58 31 0.193574 -0.493687 -0.847822
-0.533442 0.986103 1.9252 178 58 31 0.109696 -0.577731 -0.808823
-0.530427 0.986103 1.92519 178 58 31 0.085981 -0.648501 -0.756342
-0.527412 0.986103 1.92579 178 58 31 0.186387 -0.694716 -0.694716
-0.524397 0.986103 1.92695 178 58 31 0.30879 -0.674165 -0.670932
-0.521382 0.989118 1.92489 178 58 31 0.421392 -0.818932 -0.389589
-0.515352 0.992133 1.92542 172 57 39 0.321986 -0.804172 -0.499633
