ply
format ascii 1.0
element vertex 747
property float x
property float y
property float z
property uchar red
property uchar green
property uchar blue
property float nx
property float ny
property float nz
end_header
-1.80884 0.943891 1.4302 182 70 50 0.578308 -0.622145 -0.527727
-1.7998 0.949921 1.43297 182 68 48 0.518523 -0.356989 -0.776977
-1.80884 0.9258 1.43283 159 59 49 0.452981 -0.001313 -0.891519
-1.7998 0.952937 1.43159 182 68 48 0.548855 -0.185976 -0.814967
-1.80583 0.847714 1.43607 179 72 54 0.176182 0.197062 -0.964431
-1.80868 0.850422 1.43607 179 72 54 0.188589 0.094911 -0.977459
-1.80583 0.843992 1.43607 184 70 50 0.242819 -0.143066 -0.959464
-1.7998 0.859597 1.43607 133 96 92 -0.110606 -0.89745 -0.427024
-1.80573 0.844392 1.43607 185 70 51 0.296595 -0.054736 -0.953433
-1.8052 0.847407 1.43607 185 70 51 0.261632 0.018253 -0.964995
-1.7998 0.916333 1.43607 100 48 68 -0.055566 0.77365 -0.631173
-1.80176 0.916755 1.43607 100 48 68 0.112278 0.555559 -0.823861
-1.80706 0.853437 1.43607 183 72 53 0.453274 -0.12726 -0.88224
-1.79377 0.916513 1.43607 106 50 69 -0.05401 0.862769 -0.502705
-1.79327 0.916755 1.43607 106 50 69 -0.353151 0.730713 -0.584245
-1.79377 0.930137 1.43607 159 54 41 0.05401 -0.502705 -0.862769
-1.80608 0.856452 1.43607 173 76 60 0.541172 -0.179386 -0.821556
-1.79522 0.940876 1.43607 169 56 40 -0.357421 0.093064 -0.929295
-1.79377 0.942501 1.43607 169 56 40 -0.075366 0.272083 -0.959318
-1.79075 0.92952 1.43607 159 54 41 0.03877 -0.429143 -0.902404
-1.77266 0.916102 1.43607 98 48 66 0.646739 0.439515 -0.623342
-1.79678 0.859532 1.43607 133 96 92 0.025386 -0.89118 -0.452939
-1.7998 0.945758 1.43607 175 61 43 0.255378 -0.686825 -0.68048
-1.80583 0.857364 1.43607 154 102 90 0.619501 -0.388221 -0.682278
-1.77306 0.916755 1.43607 98 48 66 0.658352 0.387751 -0.645152
-1.7884 0.931831 1.43607 159 54 43 0.320229 -0.099656 -0.942084
-1.79754 0.946906 1.43607 175 61 43 0.328106 -0.364732 -0.871388
-1.79377 0.859698 1.43607 134 101 94 0.103877 -0.866594 -0.488082
-1.80516 0.859467 1.43607 133 100 94 0.527319 -0.564383 -0.635142
-1.78812 0.934846 1.43607 159 54 42 0.361568 -0.032399 -0.931783
-1.79075 0.942027 1.43607 160 51 36 0.054367 0.377918 -0.924241
-1.79075 0.860159 1.43607 133 100 95 0.093773 -0.922783 -0.373734
-1.80281 0.916982 1.43607 151 59 55 0.288366 0.348131 -0.891992
-1.7998 0.935061 1.43607 160 55 43 -0.297357 0.505035 -0.810258
-1.78774 0.941821 1.43607 162 52 36 0.285163 0.478389 -0.830558
-1.78774 0.860726 1.43607 135 99 96 0.167795 -0.933273 -0.317563
-1.80559 0.91977 1.43607 151 59 55 0.357446 0.183707 -0.915688
-1.79678 0.936496 1.43607 160 55 43 -0.193856 0.369045 -0.90897
-1.79678 0.948448 1.43607 183 68 48 0.440042 -0.277518 -0.854018
-1.80476 0.922785 1.43607 151 59 55 0.424918 -0.241738 -0.872358
-1.79595 0.949921 1.43607 183 68 48 0.533493 -0.165876 -0.82938
-1.78472 0.86123 1.43607 133 98 95 0.166988 -0.95517 -0.24447
-1.79525 0.937861 1.43607 160 55 43 -0.281186 0.134596 -0.950168
-1.80281 0.924778 1.43607 118 54 65 0.376191 -0.430159 -0.820636
-1.78171 0.861596 1.43607 125 83 85 0.128262 -0.971492 -0.199378
-1.79472 0.952937 1.43607 183 68 48 0.680983 -0.172924 -0.711589
-1.80281 0.860181 1.43607 133 100 94 0.073476 -0.952608 -0.295193
-1.78787 0.937861 1.43607 160 55 43 0.303658 -0.003688 -0.952774
-1.78774 0.940127 1.43607 160 55 43 0.299287 -0.087564 -0.950137
-1.78701 0.940876 1.43607 166 55 37 0.558138 0.004074 -0.829738
-1.77869 0.86225 1.43607 126 84 84 0.128197 -0.970998 -0.201815
-1.77568 0.862391 1.43607 126 84 84 0.12059 -0.950141 -0.28756
-1.80129 0.9258 1.43607 150 60 57 0.251825 -0.42373 -0.870079
-1.77528 0.862483 1.43607 111 60 71 0.361827 -0.920633 -0.146687
-1.7998 0.92656 1.43607 160 60 52 0.313687 -0.580723 -0.75124
-1.77266 0.863323 1.43607 116 69 75 0.352823 -0.935302 -0.026943
-1.77568 0.921006 1.43607 104 45 60 0.413221 0.638915 -0.648873
-1.76964 0.86465 1.43607 116 69 75 0.483135 -0.87352 0.059527
-1.76829 0.865498 1.43607 109 61 68 0.576118 -0.81121 0.100131
-1.79075 0.918055 1.43607 134 55 60 -0.383671 0.617496 -0.686655
-1.78782 0.91977 1.43607 134 55 60 -0.328978 0.544017 -0.771894
-1.76362 0.869935 1.43607 105 59 66 0.824165 -0.559512 -0.087738
-1.76663 0.866835 1.43607 112 68 72 0.621062 -0.772976 0.129574
-1.76482 0.868513 1.43607 106 62 67 0.711248 -0.702929 -0.004159
-1.79678 0.928022 1.43607 148 58 56 0.384004 -0.670771 -0.634513
-1.79603 0.928815 1.43607 145 58 59 0.322961 -0.400224 -0.857623
-1.76287 0.871528 1.43607 105 59 66 0.948877 -0.310284 -0.057937
-1.80583 0.934386 1.43607 165 56 43 0.229296 0.36074 -0.904041
-1.76217 0.874543 1.43607 103 56 65 0.916862 -0.30177 -0.261342
-1.80624 0.934846 1.43607 165 56 43 0.531391 0.069067 -0.844306
-1.7606 0.877172 1.43607 98 46 60 0.769868 -0.462575 -0.439691
-1.80281 0.933841 1.43607 165 55 42 -0.066407 0.410642 -0.909375
-1.80018 0.934846 1.43607 165 56 44 -0.192875 0.488915 -0.850742
-1.80682 0.937861 1.43607 165 55 40 0.628533 0.00967 -0.777723
-1.80634 0.940876 1.43607 169 59 44 0.664997 -0.185831 -0.723357
-1.80583 0.941539 1.43607 177 67 47 0.539527 -0.600414 -0.590266
-1.80281 0.943891 1.43607 167 57 41 0.482739 -0.637485 -0.60048
-1.80281 0.943893 1.43607 180 68 48 0.422782 -0.694689 -0.581947
-1.81789 0.844392 1.43316 182 69 49 0.306427 -0.107448 -0.945811
-1.81487 0.844392 1.43401 182 69 49 0.257472 -0.090948 -0.961996
-1.81487 0.847407 1.43385 182 69 49 0.275943 -0.043701 -0.96018
-1.81186 0.844392 1.43476 182 69 49 0.230578 -0.089459 -0.968933
-1.81186 0.847407 1.43466 182 69 49 0.28003 0.011006 -0.959928
-1.81487 0.850422 1.43376 182 69 49 0.34325 0.006287 -0.939223
-1.81186 0.850422 1.43463 182 69 49 0.283407 -0.062273 -0.956976
-1.81487 0.853437 1.43397 184 69 50 0.228497 -0.147544 -0.962299
-1.81186 0.853437 1.43402 182 68 48 0.203316 -0.298664 -0.93245
-1.77568 0.862483 1.43545 126 84 84 0.174246 -0.981788 -0.075707
-1.80884 0.916755 1.43385 97 46 66 0.424689 0.22203 -0.877691
-1.7998 0.946906 1.43474 182 68 48 0.498944 -0.475738 -0.724381
-1.80583 0.916755 1.43502 97 46 66 0.261578 0.490652 -0.831167
-1.79377 0.931831 1.43501 159 54 41 0.031249 -0.170134 -0.984925
-1.80884 0.844392 1.43539 179 72 54 0.204803 -0.093092 -0.974366
-1.79377 0.940876 1.43571 169 56 40 -0.112824 0.115199 -0.986914
-1.80281 0.91374 1.43333 100 48 68 0.09826 0.661422 -0.74355
-1.80884 0.847407 1.43541 179 72 54 0.214525 0.06497 -0.974555
-1.7998 0.91374 1.43353 100 48 68 -0.055963 0.707432 -0.704562
-1.79075 0.940876 1.43561 160 51 36 0.035778 0.158114 -0.986772
-1.79075 0.931831 1.43508 159 54 41 0.142257 -0.233615 -0.961866
-1.80281 0.916755 1.4359 100 48 68 0.199324 0.635056 -0.746307
-1.78774 0.940876 1.43548 162 52 36 0.120688 0.001087 -0.99269
-1.79377 0.934846 1.43497 159 54 42 -0.068408 0.131019 -0.989017
-1.79075 0.934846 1.43514 159 54 42 0.203255 0.005807 -0.979109
-1.79075 0.916755 1.43435 106 50 69 -0.342706 0.773905 -0.532563
-1.80583 0.844392 1.43604 179 72 54 0.203255 -0.005807 -0.979109
-1.79678 0.949921 1.43526 183 68 48 0.601072 -0.368505 -0.709167
-1.7998 0.934846 1.43592 160 55 43 -0.200932 0.415064 -0.887327
-1.79678 0.934846 1.4353 160 55 43 -0.083887 0.280054 -0.956312
-1.79678 0.952937 1.43383 183 68 48 0.674905 -0.083088 -0.733212
-1.79377 0.937861 1.43563 160 55 43 -0.175495 0.120731 -0.977049
-1.80583 0.847407 1.436 179 72 54 0.179787 0.008016 -0.983673
-1.79075 0.937861 1.43526 160 55 43 0.063489 0.081311 -0.994665
-1.80884 0.850422 1.43603 179 72 54 0.371197 -0.099258 -0.923234
-1.80884 0.853437 1.43509 184 72 53 0.427317 -0.252163 -0.868225
-1.80884 0.856452 1.43441 181 71 52 0.507271 -0.380858 -0.773061
-1.80583 0.859467 1.43494 154 102 90 0.437966 -0.806949 -0.396255
-1.80884 0.91977 1.43412 122 57 68 0.522508 -0.063037 -0.850301
-1.80583 0.91977 1.43595 122 57 68 0.467848 0.053508 -0.882188
-1.80884 0.922785 1.43351 122 57 68 0.55542 -0.227428 -0.799866
-1.7606 0.877558 1.43574 98 46 60 0.814701 -0.137509 -0.563341
-1.80583 0.922785 1.43551 112 53 68 0.518557 -0.246121 -0.818855
-1.80583 0.9258 1.43409 144 59 60 0.423186 -0.202009 -0.883236
-1.80884 0.928815 1.43365 159 59 51 0.257176 0.245933 -0.934547
-1.80583 0.928815 1.4341 162 56 47 0.217322 0.09924 -0.971042
-1.80281 0.9258 1.43542 118 54 65 0.300264 -0.248544 -0.920906
-1.80281 0.928815 1.43442 161 64 57 0.081125 -0.031368 -0.99621
-1.7998 0.928815 1.43486 160 60 52 0.189843 -0.289614 -0.938128
-1.80884 0.940876 1.43361 180 67 47 0.676593 -0.305193 -0.670134
-1.80583 0.943891 1.43364 177 67 47 0.467283 -0.601271 -0.648167
-1.79678 0.928815 1.43563 148 58 56 0.231798 -0.271133 -0.934215
-1.80884 0.931831 1.43411 165 56 43 0.40405 0.158479 -0.900904
-1.80583 0.931831 1.43514 165 59 48 0.183204 0.285137 -0.940815
-1.80884 0.934846 1.4348 165 56 43 0.520781 0.089888 -0.848945
-1.80281 0.931831 1.43521 165 57 46 -0.090841 0.309385 -0.946588
-1.7998 0.931831 1.43456 165 56 44 -0.01694 0.15246 -0.988164
-1.80884 0.937861 1.43452 172 61 45 0.630738 -0.104388 -0.768942
-1.79678 0.931831 1.43494 163 55 44 0.085245 -0.120277 -0.989074
-1.79389 0.958967 1.43607 172 59 42 0.64993 0.029478 -0.759422
-1.79514 0.964997 1.43607 172 59 42 0.573357 0.242154 -0.782703
-1.81186 0.835975 1.43607 186 74 53 0.290075 -0.247207 -0.924524
-1.80982 0.838362 1.43607 184 70 50 0.248915 -0.213159 -0.944777
-1.82392 0.844392 1.43109 174 73 58 0.34124 -0.132933 -0.930529
-1.7998 0.958967 1.43114 172 59 42 0.60924 0.082486 -0.788684
-1.7998 0.964997 1.4329 172 59 42 0.50954 0.312708 -0.801613
-1.82392 0.838362 1.43193 186 74 53 0.31938 -0.146668 -0.936208
-1.81789 0.838362 1.43389 186 74 53 0.282853 -0.158344 -0.946003
-1.81186 0.838362 1.43551 186 74 53 0.254123 -0.138253 -0.95724
-1.7998 0.857903 1.43908 145 80 68 0.069576 -0.824975 -0.56087
-1.79678 0.858368 1.43908 145 80 68 0.056811 -0.868795 -0.491902
-1.79377 0.858298 1.43908 145 80 68 0.082412 -0.881392 -0.46514
-1.79075 0.858811 1.43908 132 91 82 0.132888 -0.88735 -0.441532
-1.78774 0.859047 1.43908 139 86 76 0.199686 -0.912233 -0.35771
-1.7998 0.838362 1.43908 184 70 50 0.311098 -0.419441 -0.852811
-1.7998 0.83837 1.43908 184 70 50 0.406402 -0.193733 -0.892919
-1.78697 0.859467 1.43908 127 93 86 0.336656 -0.890269 -0.306731
-1.79838 0.841377 1.43908 185 70 50 0.459388 -0.087968 -0.883869
-1.79876 0.844392 1.43908 185 70 50 0.477406 0.18888 -0.858142
-1.79377 0.91968 1.43908 130 53 56 -0.130083 0.656395 -0.743117
-1.79675 0.91977 1.43908 130 53 56 0.081937 0.573558 -0.815057
-1.7998 0.845321 1.43908 186 70 51 0.449334 0.271441 -0.851128
-1.79678 0.920112 1.43908 130 53 56 0.210049 0.202021 -0.956591
-1.78472 0.860515 1.43908 127 93 86 0.212221 -0.939044 -0.270478
-1.7979 0.922785 1.43908 130 53 56 0.398974 0.043741 -0.915918
-1.79678 0.925349 1.43908 118 53 63 0.484794 -0.3028 -0.820541
-1.79634 0.9258 1.43908 118 52 61 0.251884 -0.456445 -0.853354
-1.80039 0.847407 1.43908 186 70 51 0.553131 0.146809 -0.820057
-1.7998 0.849501 1.43908 186 71 52 0.612634 -0.164882 -0.772977
-1.80281 0.850773 1.43908 187 73 53 0.366768 0.357483 -0.858887
-1.78171 0.860948 1.43908 132 99 94 0.083446 -0.95899 -0.270879
-1.80363 0.853437 1.43908 187 73 53 0.622027 0.082647 -0.778622
-1.7998 0.851075 1.43908 184 70 50 0.520782 0.584826 -0.621904
-1.80334 0.856452 1.43908 184 70 50 0.66465 -0.165782 -0.72853
-1.77869 0.861034 1.43908 128 96 92 0.114983 -0.950265 -0.289441
-1.79942 0.850422 1.43908 180 65 46 0.960928 0.001209 -0.276796
-1.77568 0.861651 1.43908 128 97 93 0.281514 -0.938842 -0.198308
-1.77391 0.862483 1.43908 118 89 85 0.424781 -0.888705 -0.172522
-1.80281 0.857048 1.43908 145 87 75 0.401674 -0.583501 -0.705822
-1.77266 0.863147 1.43908 131 97 92 0.525947 -0.850029 -0.028838
-1.76964 0.865182 1.43908 123 88 87 0.562165 -0.817561 0.124762
-1.76929 0.865498 1.43908 117 79 80 0.584429 -0.806656 0.088025
-1.76663 0.867614 1.43908 117 79 80 0.573767 -0.817863 0.043488
-1.765 0.868513 1.43908 117 79 80 0.563772 -0.825671 -0.020676
-1.76362 0.869566 1.43908 109 69 71 0.777089 -0.623123 -0.088603
-1.79377 0.926492 1.43908 136 57 62 0.07848 -0.549362 -0.831891
-1.78996 0.922785 1.43908 136 53 54 -0.346689 0.41885 -0.839269
-1.78896 0.9258 1.43908 136 53 54 -0.244204 -0.414997 -0.876437
-1.79075 0.926662 1.43908 151 57 53 -0.117213 -0.64838 -0.75224
-1.80308 0.940876 1.43908 162 52 38 0.60619 0.052527 -0.793584
-1.80281 0.941257 1.43908 162 52 38 0.467409 -0.608134 -0.64164
-1.80281 0.93822 1.43908 150 57 52 -0.088189 0.256897 -0.962407
-1.8021 0.940876 1.43908 164 54 39 -0.127897 0.063372 -0.989761
-1.78774 0.946662 1.43908 165 54 37 0.475427 0.426414 -0.769506
-1.78792 0.946906 1.43908 165 54 37 0.517197 0.074691 -0.852601
-1.78171 0.927937 1.43908 153 59 53 0.36157 0.530194 -0.766917
-1.78846 0.949921 1.43908 181 65 44 0.521049 0.152034 -0.839877
-1.78246 0.928815 1.43908 153 59 53 0.503012 0.28363 -0.816415
-1.78969 0.952937 1.43908 181 65 44 0.458152 0.143082 -0.877282
-1.77568 0.923455 1.43908 124 52 59 0.502015 0.659839 -0.5591
-1.77855 0.9258 1.43908 124 52 59 0.507737 0.625816 -0.592079
-1.78472 0.94302 1.43908 175 62 43 0.517637 0.378086 -0.767531
-1.77869 0.925892 1.43908 124 52 59 0.497141 0.625218 -0.601625
-1.78556 0.943891 1.43908 175 62 43 0.500521 0.40596 -0.76464
-1.78346 0.940876 1.43908 175 62 43 0.574403 0.221401 -0.788063
-1.78429 0.931831 1.43908 161 55 41 0.629314 0.104152 -0.77014
-1.78472 0.934844 1.43908 161 55 41 0.489615 0.071141 -0.869032
-1.78472 0.934846 1.43908 161 55 41 0.679463 -0.101698 -0.726627
-1.78472 0.93485 1.43908 160 51 36 0.467753 -0.301927 -0.830691
-1.78279 0.937861 1.43908 157 49 35 0.538614 -0.09336 -0.837365
-1.76235 0.871528 1.43908 106 63 70 0.827586 -0.477153 -0.295678
-1.761 0.874543 1.43908 103 57 66 0.823238 -0.391792 -0.410826
-1.7606 0.875213 1.43908 102 55 65 0.747382 -0.507563 -0.428718
-1.75886 0.877558 1.43908 102 54 65 0.786743 -0.341296 -0.514347
-1.7998 0.859467 1.4363 145 80 68 -0.097759 -0.868496 -0.485961
-1.79678 0.859467 1.43623 145 80 68 0.038418 -0.912754 -0.406699
-1.79377 0.859467 1.43656 145 80 68 0.095413 -0.902965 -0.418987
-1.79075 0.859467 1.43762 132 91 82 0.128404 -0.898826 -0.419076
-1.78774 0.859467 1.43841 139 86 76 0.181375 -0.871485 -0.45565
-1.80281 0.91977 1.43723 133 57 62 0.299175 0.142142 -0.943552
-1.7998 0.916755 1.43631 133 57 62 0.173289 0.48432 -0.857558
-1.80281 0.922785 1.43707 127 57 65 0.356577 -0.281979 -0.890697
-1.7998 0.922785 1.43815 127 57 65 0.387629 -0.173074 -0.905422
-1.7998 0.91977 1.43776 133 57 62 0.263311 0.292088 -0.91943
-1.7998 0.9258 1.4366 127 57 65 0.427921 -0.427921 -0.796095
-1.79678 0.916755 1.43669 130 53 56 0.029532 0.648304 -0.760808
-1.79678 0.91977 1.43882 130 53 56 0.166442 0.547309 -0.820213
-1.79377 0.916755 1.43637 130 53 56 -0.127073 0.683205 -0.719085
-1.79678 0.9258 1.43884 118 53 63 0.406757 -0.659113 -0.632549
-1.79377 0.928815 1.43734 136 57 62 0.130262 -0.678263 -0.723181
-1.78774 0.922785 1.4381 136 53 54 -0.362715 0.359628 -0.859712
-1.78774 0.9258 1.43855 136 53 54 -0.194504 -0.048924 -0.979681
-1.79075 0.928815 1.4367 151 57 53 -0.142958 -0.687702 -0.711779
-1.78774 0.928815 1.43647 136 53 54 0.271284 -0.297397 -0.915402
-1.80583 0.940876 1.43666 164 54 39 0.667203 -0.202792 -0.71674
-1.80583 0.934846 1.43623 150 57 52 0.271094 0.351089 -0.896239
-1.80281 0.943891 1.43607 162 52 38 0.492837 -0.654312 -0.573574
-1.80281 0.934846 1.43666 150 57 52 -0.042732 0.505894 -0.861536
-1.7998 0.940876 1.43907 164 54 39 -0.367871 0.087588 -0.925742
-1.7998 0.943891 1.43858 164 54 39 -0.042459 -0.491704 -0.869727
-1.80583 0.937861 1.43695 150 57 52 0.551778 0.096525 -0.828387
-1.80281 0.937861 1.43837 150 57 52 0.24728 0.406139 -0.879718
-1.79678 0.940876 1.43697 163 52 36 -0.499538 0.071363 -0.863348
-1.7998 0.937861 1.43801 150 57 52 -0.292461 0.380351 -0.877383
-1.79678 0.943891 1.43712 163 52 36 -0.148091 -0.10234 -0.983664
-1.78774 0.931831 1.43644 150 57 52 0.578888 -0.029153 -0.814886
-1.79377 0.943891 1.43651 163 52 36 -0.052372 0.302735 -0.951635
-1.79678 0.946906 1.43645 163 52 36 0.33972 -0.21358 -0.915955
-1.78774 0.934846 1.43626 150 57 52 0.613681 -0.073297 -0.786144
-1.79377 0.946906 1.43747 164 52 36 0.167319 0.065266 -0.98374
-1.79678 0.937861 1.43668 150 57 52 -0.375552 0.267824 -0.88726
-1.79075 0.943891 1.43679 165 54 37 0.098397 0.292567 -0.951169
-1.78774 0.943891 1.43733 163 52 36 0.387855 0.429354 -0.815613
-1.78774 0.937861 1.43613 150 57 52 0.496922 -0.031313 -0.86723
-1.79075 0.946906 1.43755 166 55 37 0.213962 0.190041 -0.958178
-1.79377 0.949921 1.43754 176 60 41 0.307946 -0.016208 -0.951266
-1.79377 0.952937 1.43691 176 60 41 0.526114 -0.126792 -0.840909
-1.78472 0.922785 1.43687 128 52 56 -0.246405 0.370345 -0.895616
-1.79075 0.949921 1.4376 181 65 44 0.331843 0.144579 -0.932189
-1.78171 0.922785 1.43655 128 52 56 0.081619 0.444061 -0.892272
-1.79075 0.952937 1.43853 181 65 44 0.493103 -0.006682 -0.869945
-1.78472 0.940876 1.43789 175 62 43 0.598658 0.246691 -0.762071
-1.78472 0.9258 1.43775 140 55 53 -0.008492 0.272948 -0.961991
-1.78171 0.9258 1.43793 120 51 58 0.186134 0.43529 -0.880839
-1.78472 0.928815 1.43801 146 55 48 0.310086 -0.026364 -0.950343
-1.77869 0.9258 1.43901 121 51 59 0.200566 0.499154 -0.842982
-1.78472 0.931831 1.43872 161 55 41 0.575972 0.088056 -0.812713
-1.78472 0.937861 1.43787 160 51 36 0.553416 -0.134296 -0.822007
-1.80583 0.838362 1.43711 184 70 50 0.249514 -0.263611 -0.9318
-1.80281 0.838362 1.43798 184 70 50 0.337114 -0.331067 -0.881334
-1.80583 0.841377 1.43643 184 70 50 0.249174 -0.176442 -0.95225
-1.80281 0.841377 1.43734 184 70 50 0.334669 -0.132501 -0.932974
-1.7998 0.841377 1.43856 184 70 50 0.357949 -0.122059 -0.925729
-1.80281 0.844392 1.43709 184 70 50 0.434944 -0.017186 -0.900294
-1.7998 0.844392 1.43845 184 70 50 0.407252 0.049404 -0.911978
-1.80583 0.850422 1.4366 181 70 52 0.457381 0.217444 -0.862276
-1.80281 0.847407 1.4367 186 71 52 0.533353 0.253459 -0.807027
-1.80281 0.850422 1.43893 186 72 53 0.444227 0.352536 -0.823638
-1.7998 0.850422 1.43879 186 71 52 0.03112 0.071899 -0.996926
-1.80583 0.853437 1.43712 179 68 50 0.684653 -0.046972 -0.727354
-1.80583 0.856452 1.43636 178 71 54 0.727472 -0.176125 -0.663148
-1.80281 0.859467 1.43744 145 87 75 0.230349 -0.672243 -0.703583
-1.79533 0.838362 1.4421 185 70 50 0.603838 -0.313996 -0.732657
-1.7947 0.841377 1.4421 185 70 50 0.781248 -0.076536 -0.619511
-1.79427 0.844392 1.4421 185 70 50 0.815127 0.283182 -0.505347
-1.79444 0.856452 1.4421 145 80 68 0.264091 -0.760647 -0.59302
-1.79377 0.856637 1.4421 145 80 68 0.187551 -0.869823 -0.456325
-1.79075 0.857321 1.4421 150 77 64 0.208595 -0.897105 -0.389475
-1.79645 0.847407 1.4421 180 65 46 0.670488 0.505807 -0.542776
-1.78774 0.858327 1.4421 129 86 76 0.316692 -0.880373 -0.353058
-1.79678 0.84766 1.4421 179 63 43 0.679524 0.445781 -0.582688
-1.79884 0.850422 1.4421 179 63 43 0.796399 0.204087 -0.569295
-1.78475 0.859467 1.4421 127 87 78 0.333218 -0.874888 -0.351477
-1.78472 0.859477 1.4421 126 95 88 0.231825 -0.917221 -0.323979
-1.77568 0.925218 1.4421 127 54 60 0.3474 0.696432 -0.62793
-1.78171 0.859888 1.4421 122 91 85 0.110905 -0.942026 -0.316681
-1.75758 0.875855 1.4421 103 59 69 0.669717 -0.485083 -0.562293
-1.77869 0.860268 1.4421 128 96 92 0.20153 -0.944588 -0.259111
-1.7763 0.9258 1.4421 127 54 60 0.53544 0.562465 -0.630029
-1.77568 0.861167 1.4421 128 96 92 0.33503 -0.901778 -0.273042
-1.77869 0.928259 1.4421 124 52 59 0.497788 0.531309 -0.685506
-1.75622 0.877558 1.4421 103 59 69 0.839168 -0.276632 -0.468265
-1.77272 0.862483 1.4421 118 89 85 0.389861 -0.880574 -0.269441
-1.77897 0.928815 1.4421 124 52 59 0.432884 0.245854 -0.867276
-1.75568 0.880573 1.4421 99 49 64 0.838494 -0.048831 -0.542719
-1.77266 0.862509 1.4421 125 93 89 0.651057 -0.742114 -0.15935
-1.76977 0.865498 1.4421 126 92 89 0.646159 -0.7621 -0.041004
-1.76964 0.8656 1.4421 126 92 89 0.367799 -0.798236 -0.477014
-1.76663 0.867159 1.4421 116 76 78 0.523009 -0.805717 -0.277996
-1.79926 0.853437 1.4421 176 61 43 0.562707 -0.193669 -0.80365
-1.79678 0.855894 1.4421 176 61 43 0.301824 -0.516736 -0.801178
-1.77266 0.924261 1.4421 122 47 52 0.303339 0.608282 -0.73347
-1.76442 0.868513 1.4421 117 81 81 0.507772 -0.844301 -0.171243
-1.77869 0.928894 1.4421 160 53 39 0.202718 -0.153653 -0.967107
-1.76362 0.868974 1.4421 109 69 71 0.647892 -0.720405 -0.247492
-1.77714 0.931831 1.4421 160 53 39 0.168033 -0.106707 -0.979989
-1.77602 0.934846 1.4421 160 53 39 0.230547 0.008276 -0.973026
-1.77725 0.937861 1.4421 157 49 35 0.264761 0.043505 -0.963332
-1.77869 0.94029 1.4421 158 50 36 0.290191 0.129717 -0.948136
-1.77902 0.940876 1.4421 158 50 36 0.503963 0.197072 -0.840942
-1.77568 0.940629 1.4421 158 50 36 0.133146 -0.111555 -0.984798
-1.77744 0.940876 1.4421 158 50 36 -0.069386 0.147005 -0.986699
-1.77517 0.940876 1.4421 177 63 44 0.507933 -0.164375 -0.845568
-1.7606 0.871496 1.4421 113 74 78 0.565675 -0.720699 -0.400755
-1.76057 0.871528 1.4421 106 63 70 0.657178 -0.546248 -0.519356
-1.75848 0.874543 1.4421 108 67 73 0.677562 -0.480149 -0.557106
-1.78016 0.943891 1.4421 175 61 42 0.460256 0.198104 -0.865401
-1.77568 0.941408 1.4421 175 61 42 0.305211 0.46486 -0.831114
-1.78149 0.946906 1.4421 176 61 42 0.466245 0.211384 -0.85903
-1.78171 0.947272 1.4421 175 62 43 0.392127 0.235276 -0.889315
-1.78319 0.949921 1.4421 175 62 43 0.475164 0.218726 -0.852278
-1.7843 0.952937 1.4421 175 62 43 0.598522 0.116175 -0.792638
-1.75758 0.877558 1.4407 103 59 69 0.738339 -0.226341 -0.635315
-1.75758 0.880573 1.44006 99 49 64 0.77754 -0.06755 -0.625194
-1.7998 0.856452 1.44126 145 80 68 0.39223 -0.382779 -0.836442
-1.79678 0.856452 1.44155 145 80 68 0.07297 -0.805527 -0.588049
-1.79377 0.91977 1.43912 130 53 56 -0.269837 0.39345 -0.878855
-1.7998 0.838362 1.43909 184 70 50 0.465392 -0.391315 -0.793903
-1.79678 0.922785 1.43948 130 53 56 0.202389 -0.015208 -0.979187
-1.79678 0.838362 1.44086 185 70 50 0.546618 -0.318994 -0.774242
-1.79678 0.841377 1.43989 185 70 50 0.632623 -0.073494 -0.770965
-1.79377 0.922785 1.43996 130 53 56 0.009187 0.035726 -0.999319
-1.79678 0.844392 1.44028 185 70 50 0.575851 0.207306 -0.790835
-1.76964 0.865498 1.44202 126 92 89 0.48958 -0.8677 0.086065
-1.79377 0.9258 1.43943 118 52 61 -0.014649 -0.152126 -0.988253
-1.7998 0.847407 1.43954 186 71 52 0.628592 0.297416 -0.718621
-1.79075 0.922785 1.43935 136 53 54 -0.2736 0.250918 -0.928538
-1.80281 0.853437 1.43952 184 70 50 0.51801 0.017675 -0.855192
-1.79075 0.9258 1.43947 136 53 54 -0.062619 -0.112714 -0.991652
-1.7998 0.853437 1.44139 182 66 46 0.585559 0.266737 -0.765488
-1.80281 0.940876 1.43921 150 57 52 0.000978 0.000978 -0.999999
-1.80281 0.856452 1.43937 184 70 50 0.521921 -0.102084 -0.846863
-1.78171 0.928815 1.43961 140 55 53 0.594852 0.431559 -0.678165
-1.79678 0.847407 1.44187 180 64 44 0.555471 0.403829 -0.726893
-1.78171 0.931831 1.44164 161 55 41 0.474137 0.073693 -0.877362
-1.78472 0.934846 1.43908 161 55 41 0.462431 0.001317 -0.886654
-1.78171 0.934846 1.44066 161 55 41 0.460787 -0.175187 -0.870049
-1.78774 0.946906 1.43921 165 54 37 0.489555 0.1351 -0.861443
-1.77869 0.931831 1.44193 160 53 39 0.123355 -0.09281 -0.988013
-1.78774 0.949921 1.43961 181 65 44 0.512833 0.114123 -0.850869
-1.77869 0.934846 1.44152 160 53 39 0.213869 -0.110098 -0.970638
-1.78774 0.952937 1.44002 181 65 44 0.493735 0.107334 -0.862963
-1.78171 0.937861 1.43974 160 51 36 0.518834 -0.045657 -0.853655
-1.78472 0.943891 1.43953 175 62 43 0.420737 0.379457 -0.82401
-1.78171 0.940876 1.44034 164 54 38 0.536366 0.178789 -0.824831
-1.77869 0.937861 1.44158 159 50 36 0.411842 0.041318 -0.910318
-1.78171 0.943891 1.44106 171 60 41 0.473868 0.27012 -0.838144
-1.78472 0.946906 1.44088 176 62 43 0.414309 0.268618 -0.869593
-1.77568 0.940876 1.44195 158 50 36 0.000978 -0.000978 -0.999999
-1.78171 0.946906 1.44197 179 65 45 0.339172 0.276966 -0.899028
-1.78472 0.949921 1.44134 175 62 43 0.480797 0.121993 -0.868304
-1.7606 0.871528 1.44206 113 74 78 0.71362 -0.551358 -0.432146
-1.78472 0.952937 1.44175 175 62 43 0.50356 0.119758 -0.85562
-1.7606 0.874543 1.43962 106 63 70 0.680649 -0.459898 -0.570273
-1.78546 0.958967 1.4421 174 61 42 0.552076 0.13397 -0.822961
-1.78716 0.964997 1.4421 174 61 42 0.560268 0.24502 -0.791242
-1.7998 0.832235 1.4421 184 70 50 0.443517 -0.288981 -0.8484
-1.79973 0.832331 1.4421 184 70 50 0.504231 -0.384253 -0.77337
-1.79377 0.958967 1.43617 172 59 42 0.57938 0.052158 -0.813387
-1.78774 0.958967 1.4406 172 59 42 0.560121 0.072687 -0.825216
-1.79377 0.964997 1.43703 172 59 42 0.548532 0.286122 -0.78565
-1.78774 0.964997 1.4416 172 59 42 0.588563 0.204384 -0.78219
-1.81186 0.832331 1.43714 186 74 53 0.33503 -0.273042 -0.901778
-1.80583 0.832331 1.43932 184 70 50 0.337826 -0.313803 -0.887356
-1.7998 0.832331 1.44206 184 70 50 0.361183 -0.392454 -0.845888
-1.79305 0.838362 1.44511 184 70 50 0.76708 -0.079753 -0.636575
-1.79296 0.841377 1.44511 184 70 50 0.853776 0.107619 -0.509396
-1.79371 0.844392 1.44511 184 70 50 0.868478 0.223494 -0.442489
-1.79377 0.844508 1.44511 173 65 47 0.823263 0.363251 -0.436218
-1.79512 0.847407 1.44511 173 65 47 0.815933 0.370589 -0.443753
-1.7963 0.850422 1.44511 173 65 47 0.719159 0.041135 -0.693627
-1.79558 0.853437 1.44511 169 64 47 0.568957 -0.448825 -0.689089
-1.79377 0.854554 1.44511 169 64 47 0.323165 -0.757267 -0.567548
-1.79075 0.855717 1.44511 169 65 50 0.323165 -0.757267 -0.567548
-1.78897 0.856452 1.44511 169 65 50 0.331013 -0.812487 -0.47989
-1.78774 0.856912 1.44511 153 74 60 0.295091 -0.863867 -0.408234
-1.76888 0.9258 1.44511 159 61 53 0.481083 0.143889 -0.864786
-1.76826 0.928815 1.44511 159 61 53 0.232489 -0.16872 -0.957853
-1.76663 0.93023 1.44511 175 65 47 0.404959 -0.134046 -0.904456
-1.76637 0.931831 1.44511 177 65 46 0.528668 0.001345 -0.848828
-1.76663 0.933062 1.44511 176 65 46 0.439957 0.19998 -0.875469
-1.76807 0.934846 1.44511 176 65 46 0.290415 0.233749 -0.927912
-1.76964 0.935976 1.44511 178 64 44 0.287592 0.368901 -0.883857
-1.77173 0.937861 1.44511 178 64 44 0.417115 0.08948 -0.904438
-1.7703 0.940876 1.44511 178 61 42 0.433785 0.022552 -0.900734
-1.76362 0.867335 1.44511 114 83 81 0.522334 -0.663414 -0.53577
-1.76214 0.868513 1.44511 114 83 81 0.510368 -0.651856 -0.560899
-1.7606 0.869663 1.44511 113 79 82 0.570272 -0.693304 -0.440589
-1.78472 0.857903 1.44511 127 79 69 0.251141 -0.87373 -0.416563
-1.75829 0.871528 1.44511 113 79 82 0.649751 -0.596024 -0.471783
-1.75758 0.872333 1.44511 113 77 81 0.71647 -0.526963 -0.457144
-1.78171 0.858594 1.44511 132 73 61 0.208204 -0.901246 -0.380008
-1.75606 0.874543 1.44511 114 78 83 0.809401 -0.451796 -0.375166
-1.77869 0.859269 1.44511 129 75 65 0.223149 -0.91419 -0.338322
-1.77771 0.859467 1.44511 129 75 65 0.278494 -0.919175 -0.278494
-1.75495 0.877558 1.44511 110 72 78 0.89846 -0.217676 -0.381297
-1.77568 0.859984 1.44511 129 75 65 0.305103 -0.921038 -0.242077
-1.75461 0.880573 1.44511 104 60 71 0.922233 -0.131352 -0.363639
-1.77266 0.861186 1.44511 117 79 73 0.319552 -0.896232 -0.307662
-1.76964 0.862159 1.44511 116 85 80 0.321231 -0.885271 -0.336312
-1.75457 0.880919 1.44511 98 46 63 0.896491 -0.07574 -0.43654
-1.76929 0.862483 1.44511 117 82 76 0.522004 -0.751097 -0.404185
-1.75427 0.883588 1.44511 99 51 66 0.91415 -0.091552 -0.394902
-1.76663 0.864883 1.44511 116 84 83 0.539476 -0.670564 -0.509225
-1.77568 0.946363 1.44511 177 63 44 0.282043 0.416203 -0.864423
-1.76576 0.865498 1.44511 116 84 83 0.522758 -0.65723 -0.542929
-1.77622 0.946906 1.44511 177 63 44 0.491514 0.265139 -0.829527
-1.75359 0.886604 1.44511 99 51 66 0.947626 -0.090688 -0.306237
-1.77729 0.949921 1.44511 175 62 43 0.431513 0.225462 -0.873478
-1.77869 0.95219 1.44511 175 62 43 0.374154 0.260864 -0.88992
-1.75375 0.889619 1.44511 97 46 63 0.967152 0.132293 -0.217063
-1.77936 0.952937 1.44511 175 62 43 0.343611 0.092254 -0.93457
-1.77193 0.943891 1.44511 174 61 42 0.384804 0.279171 -0.879767
-1.77266 0.944573 1.44511 174 61 42 0.230378 0.371246 -0.899501
-1.79377 0.844392 1.44469 173 65 47 0.93758 0.184192 -0.294985
-1.79678 0.850422 1.4444 173 65 47 0.779518 0.262989 -0.568497
-1.79678 0.853437 1.44422 173 59 40 0.590189 -0.325008 -0.738949
-1.79377 0.856452 1.44238 169 64 47 0.261404 -0.793604 -0.549418
-1.79075 0.856452 1.44386 169 65 50 0.276947 -0.837029 -0.471893
-1.77568 0.9258 1.44241 124 52 59 0.305428 0.259107 -0.916284
-1.78472 0.859467 1.44212 127 79 69 0.155369 -0.875585 -0.457395
-1.77869 0.928815 1.4423 124 52 59 0.25121 0.001191 -0.967932
-1.77568 0.928815 1.44295 124 52 59 0.30142 -0.006151 -0.953472
-1.78171 0.859467 1.44313 132 73 61 0.171578 -0.895379 -0.410923
-1.76964 0.922785 1.44302 122 47 52 0.601737 0.372192 -0.706672
-1.77869 0.859467 1.44453 129 75 65 0.163573 -0.92412 -0.345322
-1.77266 0.862483 1.44215 117 79 73 0.457859 -0.69761 -0.551095
-1.76964 0.862483 1.44443 116 85 80 0.518945 -0.539099 -0.663377
-1.76964 0.865498 1.44253 118 84 83 0.507383 -0.514081 -0.691581
-1.76663 0.865498 1.44434 116 84 83 0.449472 -0.639954 -0.623245
-1.76362 0.868513 1.44322 117 83 83 0.541409 -0.732301 -0.413051
-1.77869 0.940876 1.44223 177 64 45 -0.001135 0.178186 -0.983996
-1.77869 0.943891 1.44275 177 64 45 0.252976 0.28442 -0.924721
-1.77568 0.943891 1.44389 177 63 43 0.376983 0.40853 -0.831256
-1.77869 0.946906 1.44343 177 63 44 0.445289 0.2538 -0.858664
-1.78171 0.949921 1.44287 175 62 43 0.427859 0.30429 -0.851084
-1.78171 0.952937 1.4442 175 62 43 0.492717 0.190198 -0.84915
-1.77869 0.949921 1.4444 175 62 43 0.413284 0.302665 -0.858831
-1.77266 0.940876 1.44383 174 61 42 0.483012 0.077002 -0.872221
-1.77266 0.943891 1.44485 174 61 42 0.281979 0.356577 -0.890697
-1.76964 0.9258 1.44465 131 54 59 0.410532 0.32068 -0.853597
-1.77266 0.928815 1.44418 131 50 51 0.316961 -0.008701 -0.948398
-1.76964 0.928815 1.44493 155 55 47 0.235969 -0.087069 -0.967852
-1.77568 0.931831 1.44228 148 51 45 0.302226 -0.130293 -0.94429
-1.77568 0.934846 1.44217 155 48 35 0.381568 0.175778 -0.907474
-1.77568 0.937861 1.44279 174 63 44 0.479581 -0.079697 -0.873871
-1.77266 0.931831 1.44336 154 51 39 0.31421 -0.088084 -0.945258
-1.76964 0.931831 1.44412 165 57 42 0.243432 -0.06866 -0.967485
-1.77266 0.934846 1.44324 166 57 42 0.367882 0.174708 -0.913313
-1.76964 0.934846 1.44457 175 62 43 0.333695 0.138696 -0.932422
-1.76663 0.931831 1.44501 175 65 47 0.291258 0.001219 -0.956644
-1.77266 0.937861 1.44458 178 64 44 0.461922 0.112283 -0.879784
-1.75758 0.874543 1.4432 113 77 81 0.672824 -0.484903 -0.558729
-1.79377 0.838362 1.44409 184 70 50 0.807569 -0.137805 -0.573448
-1.75457 0.883588 1.44447 98 46 63 0.883861 -0.133224 -0.448377
-1.79377 0.841377 1.44366 184 70 50 0.86561 0.04832 -0.498382
-1.75457 0.889619 1.44228 97 46 63 0.951894 0.10082 -0.289365
-1.79075 0.840023 1.44813 184 70 50 0.673792 0.179576 -0.716768
-1.79133 0.841377 1.44813 184 70 50 0.742185 0.219388 -0.633269
-1.79017 0.838362 1.44813 184 70 50 0.634605 0.067634 -0.769872
-1.7921 0.844392 1.44813 184 70 50 0.710738 0.202847 -0.673576
-1.7928 0.847407 1.44813 173 65 47 0.576668 0.060926 -0.814703
-1.79307 0.850422 1.44813 173 65 47 0.501081 -0.207396 -0.840181
-1.79075 0.853151 1.44813 169 65 50 0.436254 -0.39151 -0.810186
-1.79033 0.853437 1.44813 169 65 50 0.362105 -0.6046 -0.709463
-1.78774 0.854774 1.44813 169 65 50 0.362202 -0.676875 -0.640819
-1.78502 0.856452 1.44813 120 75 77 0.367921 -0.721125 -0.587038
-1.76362 0.937944 1.44813 173 62 44 0.551513 0.230183 -0.801779
-1.76464 0.940876 1.44813 173 62 44 0.565445 0.163484 -0.808421
-1.76362 0.864617 1.44813 114 83 81 0.457177 -0.661484 -0.594498
-1.76226 0.865498 1.44813 114 83 81 0.488964 -0.630108 -0.603223
-1.7606 0.8668 1.44813 114 83 82 0.532372 -0.616875 -0.579694
-1.75888 0.868513 1.44813 114 83 81 0.663257 -0.545718 -0.512135
-1.76197 0.931831 1.44813 179 63 44 0.568946 0.081687 -0.818308
-1.76293 0.934846 1.44813 178 63 44 0.563511 0.153957 -0.811636
-1.75758 0.870597 1.44813 113 81 83 0.779354 -0.463708 -0.421405
-1.75709 0.871528 1.44813 117 86 87 0.794646 -0.449708 -0.4078
-1.75525 0.874543 1.44813 117 84 87 0.816404 -0.510447 -0.270053
-1.75457 0.87565 1.44813 109 70 77 0.852256 -0.416074 -0.317083
-1.76358 0.937861 1.44813 178 63 44 0.56887 0.124946 -0.812881
-1.7536 0.877558 1.44813 117 86 88 0.840038 -0.307027 -0.447293
-1.75283 0.880573 1.44813 109 70 77 0.859998 -0.14115 -0.490388
-1.75268 0.883588 1.44813 103 59 71 0.883833 -0.006625 -0.467756
-1.76536 0.943891 1.44813 174 61 42 0.598297 0.188211 -0.778857
-1.75288 0.886604 1.44813 99 50 66 0.931229 0.059272 -0.359583
-1.76663 0.946143 1.44813 174 61 42 0.481857 0.335551 -0.809456
-1.76747 0.946906 1.44813 174 61 42 0.419508 0.293502 -0.858993
-1.75345 0.889619 1.44813 97 46 63 0.912195 0.148038 -0.382079
-1.78472 0.856576 1.44813 159 70 55 0.22974 -0.887834 -0.39871
-1.78171 0.857369 1.44813 165 68 51 0.234489 -0.895188 -0.379017
-1.77869 0.858223 1.44813 142 70 57 0.335739 -0.886772 -0.317672
-1.77588 0.859467 1.44813 129 75 65 0.391367 -0.890545 -0.231867
-1.77568 0.859544 1.44813 129 75 65 0.26123 -0.937353 -0.230497
-1.77266 0.860459 1.44813 117 72 65 0.281671 -0.917237 -0.281671
-1.76964 0.861223 1.44813 117 79 73 0.254624 -0.872349 -0.417341
-1.76675 0.862483 1.44813 117 82 76 0.34499 -0.784651 -0.515078
-1.76663 0.862537 1.44813 116 84 83 0.499497 -0.660951 -0.560042
-1.79075 0.838362 1.44757 184 70 50 0.629553 -0.038027 -0.776026
-1.79377 0.847407 1.44738 173 65 47 0.784598 0.228388 -0.576407
-1.79377 0.850422 1.44771 173 65 47 0.705318 -0.03251 -0.708145
-1.79377 0.853437 1.44643 169 64 47 0.45066 -0.470326 -0.758748
-1.79075 0.853437 1.44795 169 65 50 0.300055 -0.72687 -0.61776
-1.78774 0.856452 1.44606 169 65 50 0.359815 -0.801188 -0.478154
-1.76362 0.922785 1.44769 128 47 49 0.500539 0.173777 -0.848093
-1.76362 0.865498 1.44707 115 84 82 0.499232 -0.64379 -0.579915
-1.76663 0.9258 1.44615 134 52 52 0.47299 -0.003975 -0.881059
-1.76663 0.928815 1.44545 159 61 53 0.430115 -0.215802 -0.876602
-1.76362 0.931831 1.44688 179 63 44 0.563742 0.060754 -0.823713
-1.76362 0.934846 1.44763 178 63 44 0.529016 0.188396 -0.827435
-1.76362 0.937861 1.44811 178 63 44 0.490587 0.138296 -0.860348
-1.76663 0.934846 1.44573 176 65 46 0.478203 0.226198 -0.84862
-1.76964 0.937861 1.44586 178 61 42 0.304461 0.073848 -0.949658
-1.77568 0.946906 1.4454 177 63 44 0.239701 0.239701 -0.940791
-1.76964 0.940876 1.4455 178 64 44 0.43157 0.027886 -0.901649
-1.77568 0.949921 1.44573 175 62 43 0.33989 0.227075 -0.91264
-1.76663 0.937861 1.44639 173 62 44 0.394307 0.196426 -0.897741
-1.77869 0.952937 1.44531 175 62 43 0.426522 0.150791 -0.891819
-1.76663 0.940876 1.44686 173 62 44 0.411886 0.101238 -0.905594
-1.77568 0.952937 1.44661 175 62 43 0.366612 0.213011 -0.905661
-1.7606 0.868513 1.44637 114 83 82 0.576208 -0.582967 -0.572829
-1.76964 0.943891 1.44604 174 61 42 0.375552 0.267824 -0.88726
-1.77266 0.946906 1.44605 174 61 42 0.319327 0.281066 -0.905004
-1.75758 0.871528 1.44667 113 81 83 0.738523 -0.565712 -0.366816
-1.75457 0.877558 1.44599 109 70 77 0.889155 -0.270482 -0.369111
-1.76964 0.946906 1.44729 174 61 42 0.354487 0.309234 -0.882447
-1.76663 0.943891 1.44733 174 61 42 0.41371 0.234485 -0.879694
-1.75457 0.880573 1.44518 109 70 77 0.869278 -0.168578 -0.46469
-1.78993 0.832331 1.44813 184 70 50 0.454052 -0.011914 -0.890895
-1.76964 0.949888 1.44813 174 61 42 0.386277 0.269041 -0.882274
-1.77176 0.952937 1.44813 174 61 42 0.389345 0.238344 -0.88972
-1.77568 0.960069 1.44813 174 61 42 0.462561 0.262784 -0.846748
-1.77508 0.958967 1.44813 174 61 42 0.434829 0.239231 -0.868154
-1.79377 0.832331 1.4459 184 70 50 0.545576 -0.209367 -0.811487
-1.78171 0.958967 1.44466 174 61 42 0.502777 0.148048 -0.851643
-1.77568 0.958967 1.44785 174 61 42 0.417845 0.172054 -0.892078
-1.78171 0.964997 1.44587 174 61 42 0.536736 0.239752 -0.808971
-1.76362 0.841342 1.45114 177 64 46 0.336146 0.398108 -0.853531
-1.78692 0.850422 1.45114 172 60 43 0.343901 -0.247316 -0.905851
-1.76367 0.841377 1.45114 177 64 46 0.14562 0.350874 -0.925031
-1.76964 0.841988 1.45114 177 64 46 -0.132336 0.498806 -0.856551
-1.78472 0.852357 1.45114 172 60 43 0.319776 -0.380977 -0.867525
-1.76663 0.842397 1.45114 177 64 46 0.003895 0.414191 -0.910182
-1.76362 0.860904 1.45114 166 65 49 0.295091 -0.522327 -0.80006
-1.78346 0.853437 1.45114 172 60 43 0.336916 -0.466621 -0.817773
-1.78171 0.854644 1.45114 172 60 43 0.287712 -0.37508 -0.881213
-1.76157 0.862483 1.45114 166 65 49 0.352746 -0.358907 -0.86415
-1.78 0.856452 1.45114 172 60 43 0.403308 -0.561339 -0.722662
-1.7606 0.863575 1.45114 120 79 73 0.461412 -0.438586 -0.771194
-1.75907 0.865498 1.45114 126 78 71 0.619502 -0.435822 -0.652898
-1.76362 0.832203 1.45114 176 64 45 0.243392 -0.265902 -0.932768
-1.76306 0.832331 1.45114 176 64 45 0.132933 -0.34124 -0.930529
-1.77869 0.857322 1.45114 165 63 48 0.345253 -0.788461 -0.509047
-1.75758 0.867704 1.45114 121 84 79 0.719885 -0.393713 -0.571625
-1.75418 0.904694 1.45114 119 45 52 0.886632 0.254814 -0.385946
-1.77568 0.858402 1.45114 168 64 48 0.215916 -0.81313 -0.540555
-1.75709 0.868513 1.45114 145 80 70 0.721216 -0.462573 -0.515628
-1.77266 0.858692 1.45114 158 63 47 0.113907 -0.744093 -0.658293
-1.75527 0.871528 1.45114 127 98 93 0.757026 -0.438451 -0.484431
-1.7606 0.833234 1.45114 177 65 45 0.412231 -0.377483 -0.8292
-1.77046 0.859467 1.45114 158 63 47 0.247869 -0.727819 -0.639407
-1.75457 0.872808 1.45114 131 101 97 0.741709 -0.409502 -0.531202
-1.75909 0.835347 1.45114 176 64 45 0.549263 -0.046121 -0.834376
-1.76964 0.859746 1.45114 129 70 59 0.050648 -0.88292 -0.466784
-1.75356 0.874543 1.45114 133 102 98 0.779716 -0.384184 -0.494414
-1.76663 0.859688 1.45114 145 67 54 0.196249 -0.730911 -0.653648
-1.75203 0.877558 1.45114 129 97 96 0.818609 -0.379898 -0.430763
-1.75654 0.910725 1.45114 129 49 52 0.787585 0.276207 -0.550836
-1.75155 0.87887 1.45114 122 87 90 0.882993 -0.221119 -0.414042
-1.75118 0.880573 1.45114 135 82 79 0.917391 -0.068703 -0.392013
-1.75155 0.889243 1.45114 100 47 64 0.879548 0.109058 -0.463144
-1.76002 0.838362 1.45114 176 64 45 0.700752 0.330052 -0.632465
-1.75164 0.889619 1.45114 100 47 64 0.851786 0.101642 -0.513935
-1.7606 0.838808 1.45114 174 64 45 0.33114 0.408873 -0.850393
-1.7594 0.91977 1.45114 167 66 55 0.746398 -0.04995 -0.663623
-1.75759 0.922785 1.45114 177 69 55 0.524935 -0.372168 -0.765463
-1.75758 0.922787 1.45114 177 64 47 0.557145 -0.358977 -0.748816
-1.75196 0.892634 1.45114 100 45 62 0.826572 0.134079 -0.546628
-1.75565 0.9258 1.45114 177 61 43 0.770808 -0.211625 -0.600891
-1.75116 0.883588 1.45114 114 71 77 0.918565 -0.019544 -0.394787
-1.75652 0.928815 1.45114 177 61 43 0.635686 0.104235 -0.764878
-1.75113 0.886604 1.45114 104 49 62 0.912397 0.052252 -0.405957
-1.75758 0.932997 1.45114 178 62 42 0.509287 0.123332 -0.851714
-1.75804 0.934846 1.45114 178 62 42 0.491618 0.141504 -0.859237
-1.75729 0.931831 1.45114 178 61 42 0.519351 0.133129 -0.844128
-1.75897 0.937861 1.45114 178 61 42 0.496581 0.203764 -0.843734
-1.76026 0.940876 1.45114 178 61 42 0.525524 0.188225 -0.829696
-1.76932 0.820271 1.45114 175 62 42 0.175122 -0.188094 -0.966413
-1.76663 0.822046 1.45114 175 62 42 0.200771 -0.252671 -0.946493
-1.76518 0.823286 1.45114 175 62 42 0.305472 -0.065735 -0.949929
-1.76617 0.826301 1.45114 176 64 44 0.374437 0.043356 -0.926238
-1.76646 0.829316 1.45114 175 63 43 0.290661 -0.150062 -0.944986
-1.76964 0.838362 1.44947 177 64 46 -0.204433 0.228803 -0.951765
-1.76663 0.838362 1.44908 177 64 46 0.039029 0.192781 -0.980465
-1.76964 0.841377 1.45075 177 64 46 -0.199204 0.435297 -0.877972
-1.76362 0.940876 1.44917 139 65 65 0.571682 0.193609 -0.797305
-1.76362 0.862483 1.45009 166 65 49 0.451299 -0.56454 -0.691103
-1.7606 0.865498 1.44963 120 79 73 0.536028 -0.590138 -0.603665
-1.79075 0.850422 1.44953 156 64 51 0.469132 -0.172064 -0.866204
-1.75758 0.868513 1.45031 121 84 79 0.757295 -0.474747 -0.448463
-1.78774 0.850422 1.45083 156 64 51 0.378796 -0.217918 -0.899458
-1.78774 0.853437 1.44935 156 64 51 0.35166 -0.46941 -0.809932
-1.75457 0.874543 1.4496 131 101 97 0.779652 -0.450863 -0.434587
-1.78472 0.853437 1.45061 172 60 43 0.341553 -0.558464 -0.755949
-1.78472 0.856452 1.44833 172 60 43 0.37449 -0.557646 -0.740803
-1.75457 0.904694 1.45064 119 45 52 0.579854 0.187197 -0.792923
-1.78171 0.856452 1.4499 172 60 43 0.343809 -0.718578 -0.604518
-1.75155 0.880573 1.45047 122 87 90 0.883424 -0.062019 -0.464452
-1.77568 0.859467 1.44854 168 64 48 0.251265 -0.890578 -0.379127
-1.75155 0.883588 1.45046 108 68 77 0.883251 0.006641 -0.468854
-1.75155 0.886604 1.45059 101 52 66 0.87352 0.059527 -0.483135
-1.77266 0.859467 1.44994 158 63 47 0.238141 -0.853969 -0.46263
-1.76663 0.841377 1.45053 177 64 46 0.105216 0.436294 -0.893631
-1.76663 0.862483 1.4482 145 67 54 0.347541 -0.634711 -0.690187
-1.76362 0.838362 1.44986 177 64 46 0.251254 0.18878 -0.949333
-1.75457 0.895649 1.44895 97 45 63 0.723811 0.139947 -0.675657
-1.7606 0.91977 1.44959 130 46 48 0.809925 0.112774 -0.575589
-1.7606 0.922785 1.44971 168 68 56 0.507266 -0.107776 -0.855024
-1.76362 0.832331 1.45108 176 64 45 0.168366 -0.324209 -0.930882
-1.7606 0.9258 1.44941 178 67 50 0.360916 -0.042997 -0.931607
-1.76362 0.835347 1.44995 177 65 45 0.185388 -0.154703 -0.970411
-1.7606 0.835347 1.45051 177 65 45 0.253588 -0.048244 -0.966109
-1.75758 0.9258 1.44971 177 64 47 0.368609 -0.079083 -0.926214
-1.7606 0.838362 1.45089 176 64 45 0.294377 0.092892 -0.951164
-1.7606 0.928815 1.44894 179 67 49 0.488802 0.003996 -0.872386
-1.75758 0.928815 1.45049 178 60 43 0.388509 0.102962 -0.915674
-1.76964 0.820271 1.45109 175 62 42 0.125235 -0.164914 -0.978325
-1.76964 0.823286 1.4506 175 62 42 0.116158 -0.123342 -0.985543
-1.76663 0.823286 1.45089 175 62 42 0.119004 -0.048735 -0.991697
-1.7606 0.931831 1.4491 178 61 42 0.53413 0.090215 -0.840575
-1.75758 0.931831 1.45099 178 61 42 0.497261 0.098312 -0.862013
-1.76964 0.826301 1.45017 174 61 41 0.138234 -0.023601 -0.990118
-1.76663 0.826301 1.45093 174 61 41 0.21232 0.010557 -0.977143
-1.7606 0.934846 1.44967 178 61 41 0.52449 0.152176 -0.837707
-1.76964 0.829316 1.45046 175 63 43 0.142908 -0.040014 -0.988927
-1.76663 0.829316 1.45109 175 63 43 0.203939 -0.120337 -0.97156
-1.7606 0.937861 1.45019 178 61 42 0.523487 0.181495 -0.832479
-1.76964 0.832331 1.44982 175 63 43 0.121876 -0.192237 -0.973751
-1.7606 0.940876 1.45089 178 61 42 0.497512 0.186754 -0.847115
-1.76663 0.832331 1.45043 175 63 43 0.174989 -0.239108 -0.955095
-1.76964 0.835347 1.4493 178 66 47 -0.066925 0.022308 -0.997509
-1.76663 0.835347 1.44949 178 66 47 0.145841 -0.210373 -0.966682
-1.77869 0.844898 1.45416 172 60 43 0.108961 0.130514 -0.985441
-1.7793 0.847407 1.45416 172 60 43 0.23546 0.017928 -0.971719
-1.77568 0.845155 1.45416 172 60 43 -0.073582 0.235711 -0.969034
-1.77869 0.848234 1.45416 172 60 43 0.202643 -0.192047 -0.960236
-1.77665 0.850422 1.45416 172 60 43 0.257772 -0.272014 -0.927126
-1.77568 0.851111 1.45416 173 60 43 0.058773 -0.258851 -0.964127
-1.77266 0.846941 1.45416 171 60 42 -0.211711 0.29303 -0.932369
-1.77224 0.847407 1.45416 171 60 42 -0.233646 0.060575 -0.970433
-1.77175 0.850422 1.45416 171 60 42 -0.228141 -0.05002 -0.972342
-1.77266 0.851496 1.45416 171 60 42 -0.057306 -0.218252 -0.974208
-1.75712 0.844392 1.45416 170 59 40 0.397513 -0.426248 -0.812586
-1.75457 0.846417 1.45416 170 59 40 0.233122 -0.532629 -0.81361
-1.75155 0.900126 1.45416 144 53 50 0.708772 0.216526 -0.671386
-1.75155 0.846932 1.45416 170 59 40 0.043702 -0.610422 -0.79087
-1.75208 0.901679 1.45416 144 53 50 0.833415 0.237899 -0.498821
-1.75155 0.852881 1.45416 171 63 45 0.419421 0.06651 -0.905352
-1.75038 0.892634 1.45416 123 42 46 0.880912 0.031123 -0.472255
-1.7518 0.853437 1.45416 171 63 45 0.342838 0.089378 -0.935133
-1.75084 0.895649 1.45416 123 42 46 0.823947 0.078539 -0.561198
-1.75096 0.898664 1.45416 128 44 46 0.755354 0.01252 -0.655197
-1.75292 0.907709 1.45416 117 40 48 0.611675 0.148786 -0.776992
-1.75457 0.910317 1.45416 131 47 47 0.652029 0.381313 -0.655331
-1.75256 0.856452 1.45416 171 62 44 0.33719 0.091961 -0.936934
-1.75487 0.910725 1.45416 131 47 47 0.817737 0.15044 -0.555584
-1.75525 0.91374 1.45416 148 55 50 0.711182 0.199875 -0.673996
-1.75091 0.847407 1.45416 171 61 44 0.503147 -0.023055 -0.863893
-1.75632 0.916755 1.45416 148 55 50 0.496529 0.183403 -0.848423
-1.75108 0.850422 1.45416 171 62 45 0.590037 0.070004 -0.804336
-1.7569 0.91977 1.45416 174 65 50 0.415896 -0.01968 -0.909199
-1.7555 0.922785 1.45416 174 65 50 0.671244 -0.359419 -0.648267
-1.75457 0.92463 1.45416 177 61 43 0.649365 -0.248054 -0.718884
-1.75395 0.9258 1.45416 177 61 43 0.667485 -0.220411 -0.711254
-1.7538 0.859467 1.45416 172 65 47 0.256431 0.167821 -0.951882
-1.75306 0.928815 1.45416 177 61 43 0.751583 -0.061794 -0.656737
-1.75457 0.860394 1.45416 170 69 53 0.270638 0.160229 -0.949253
-1.75543 0.862483 1.45416 170 69 53 0.402728 0.052181 -0.913831
-1.75313 0.931831 1.45416 178 61 42 0.75777 0.006927 -0.652485
-1.75328 0.934846 1.45416 178 61 42 0.689032 0.07398 -0.720945
-1.75576 0.865498 1.45416 145 80 70 0.586612 -0.082154 -0.80569
-1.75379 0.937861 1.45416 178 61 42 0.675172 0.130244 -0.726072
-1.75498 0.868513 1.45416 141 82 72 0.697859 -0.287165 -0.656148
-1.75457 0.940145 1.45416 178 61 42 0.541631 0.240552 -0.805463
-1.75501 0.940876 1.45416 178 61 42 0.53891 0.206099 -0.816762
-1.75457 0.869065 1.45416 149 102 94 0.64592 -0.464727 -0.605654
-1.7527 0.871528 1.45416 142 101 94 0.720909 -0.358002 -0.593401
-1.75162 0.874543 1.45416 151 101 93 0.809821 -0.280383 -0.51534
-1.75155 0.874811 1.45416 137 93 88 0.912329 -0.172218 -0.371479
-1.75073 0.877558 1.45416 135 82 79 0.960515 -0.23718 -0.145453
-1.75005 0.880573 1.45416 133 83 81 0.965018 -0.119822 -0.233202
-1.74988 0.883588 1.45416 114 61 68 0.973591 -0.034987 -0.225603
-1.74998 0.886604 1.45416 118 53 57 0.96456 0.023228 -0.26284
-1.75001 0.889619 1.45416 121 45 50 0.930587 0.067703 -0.359756
-1.75791 0.832331 1.45416 177 66 47 0.591142 -0.25695 -0.764544
-1.75758 0.83291 1.45416 176 64 44 0.617632 -0.340594 -0.708891
-1.75758 0.8382 1.45416 176 64 45 0.56404 0.259238 -0.783999
-1.75778 0.838362 1.45416 176 64 45 0.699677 0.261784 -0.664772
-1.75659 0.835347 1.45416 176 64 46 0.602869 -0.040753 -0.796799
-1.75777 0.841377 1.45416 174 63 44 0.535167 -0.020531 -0.844497
-1.75758 0.843262 1.45416 174 64 46 0.520596 -0.083692 -0.849692
-1.76362 0.841377 1.45116 177 64 46 0.383564 0.227787 -0.894982
-1.76964 0.844392 1.45257 177 64 46 -0.204074 0.341074 -0.917618
-1.76663 0.844392 1.45215 177 64 46 -0.117473 0.283784 -0.951665
-1.78171 0.844392 1.45342 172 60 43 0.258722 0.195753 -0.945909
-1.76362 0.844392 1.45192 173 61 42 0.107867 0.149075 -0.982925
-1.7606 0.844392 1.45227 173 61 42 0.271488 -0.086207 -0.958573
-1.76362 0.847407 1.45204 173 61 42 -0.095769 -0.009685 -0.995356
-1.7606 0.847407 1.45173 173 61 42 0.150971 -0.150971 -0.976942
-1.75758 0.844392 1.45401 173 61 42 0.397375 -0.259419 -0.880224
-1.77869 0.844392 1.45392 172 60 43 -0.01928 0.368883 -0.929276
-1.78171 0.847407 1.45353 172 60 43 0.312465 -0.093608 -0.945306
-1.77568 0.844392 1.45388 172 60 43 -0.103665 0.399457 -0.910872
-1.75758 0.847407 1.45265 173 61 42 0.300492 -0.213025 -0.929691
-1.75155 0.898664 1.45329 144 53 50 0.843007 0.17457 -0.508788
-1.76362 0.850422 1.45184 173 61 42 -0.136621 0.028228 -0.990221
-1.75155 0.892634 1.45183 123 42 46 0.879562 0.103063 -0.464488
-1.78171 0.850422 1.45284 172 60 43 0.25726 -0.291753 -0.921248
-1.7606 0.850422 1.45167 173 61 42 0.130743 0.021232 -0.991189
-1.75155 0.895649 1.45257 123 42 46 0.883372 0.106005 -0.456527
-1.77869 0.850422 1.45356 172 60 43 0.200632 -0.368066 -0.907896
-1.75758 0.850422 1.45237 173 61 42 0.256528 -0.03314 -0.965969
-1.75457 0.847407 1.45384 170 59 40 0.213369 -0.146126 -0.965982
-1.75457 0.907709 1.45222 129 49 52 0.802143 0.253882 -0.540473
-1.75155 0.847407 1.45389 170 59 40 0.078688 -0.135061 -0.987708
-1.78472 0.850422 1.45194 172 60 43 0.335647 -0.175547 -0.925486
-1.78171 0.853437 1.45167 172 60 43 0.180276 -0.393722 -0.901379
-1.75457 0.850422 1.45327 170 59 38 0.249535 -0.043023 -0.96741
-1.75155 0.850422 1.45383 170 60 41 0.190219 -0.024507 -0.981436
-1.76362 0.853437 1.45221 172 58 39 -0.066152 0.048801 -0.996616
