ply
format ascii 1.0
element vertex 744
property float x
property float y
property float z
property uchar red
property uchar green
property uchar blue
property float nx
property float ny
property float nz
end_header
-1.56763 0.591121 1.51617 126 82 88 -0.774544 -0.191719 -0.602764
-1.55256 0.627303 1.51729 113 53 69 -0.001371 0.785794 -0.618487
-1.57668 0.666499 1.51575 177 64 44 0.443975 -0.243959 -0.862189
-1.57366 0.666499 1.5173 177 64 44 0.420183 -0.279613 -0.863286
-1.54351 0.582076 1.51548 112 57 75 -0.183347 -0.979875 -0.078924
-1.57366 0.669515 1.51625 177 64 44 0.399176 -0.206168 -0.893394
-1.57065 0.67253 1.51699 171 63 45 0.380965 -0.160034 -0.910634
-1.58537 0.579061 1.52049 178 64 45 0.622814 -0.202453 -0.755722
-1.58425 0.582076 1.52049 178 64 45 0.501852 -0.083406 -0.860923
-1.58561 0.585091 1.52049 178 63 44 0.322488 0.227891 -0.918731
-1.58572 0.58517 1.52049 178 64 45 0.405412 0.380172 -0.831331
-1.58848 0.588106 1.52049 178 64 45 0.397931 0.226333 -0.889058
-1.58271 0.623038 1.52049 177 62 46 0.37299 -0.114237 -0.920776
-1.58225 0.624287 1.52049 177 62 46 0.361252 -0.122249 -0.92442
-1.58123 0.627303 1.52049 177 62 46 0.272593 -0.067197 -0.95978
-1.58722 0.591121 1.52049 178 66 50 0.465932 -0.094312 -0.87978
-1.58271 0.628997 1.52049 180 67 46 0.138253 0.254123 -0.95724
-1.57065 0.589131 1.52049 169 64 51 -0.570882 -0.396492 -0.718949
-1.58486 0.630318 1.52049 180 67 46 0.240769 0.148671 -0.959128
-1.57198 0.591121 1.52049 169 64 51 -0.502403 -0.238142 -0.831192
-1.51771 0.603182 1.52049 105 68 72 0.960965 0.194308 -0.196952
-1.53446 0.580055 1.52049 114 58 73 -0.095162 -0.995457 -0.003208
-1.58437 0.633333 1.52049 180 67 46 0.190078 -0.036599 -0.981087
-1.51832 0.606197 1.52049 105 68 72 0.940279 0.292379 -0.174329
-1.58711 0.594136 1.52049 175 67 54 0.608933 -0.023688 -0.792868
-1.53145 0.579964 1.52049 114 58 73 -0.007061 -0.999657 0.025218
-1.58723 0.597151 1.52049 171 67 55 0.592307 0.004104 -0.805702
-1.58396 0.636348 1.52049 181 71 50 0.239241 -0.035218 -0.970321
-1.51939 0.608709 1.52049 91 52 58 0.8978 0.409397 -0.162322
-1.58717 0.600166 1.52049 166 69 61 0.589428 -0.09751 -0.801914
-1.58271 0.639363 1.52049 181 67 47 0.074787 -0.072555 -0.994557
-1.5197 0.609212 1.52049 91 52 58 0.845712 0.497213 -0.193778
-1.58594 0.603182 1.52049 173 66 53 0.664767 -0.244748 -0.705821
-1.52843 0.580108 1.52049 114 58 73 0.077496 -0.993976 0.077496
-1.57969 0.62941 1.52049 176 61 46 0.408302 -0.149379 -0.900542
-1.52542 0.580327 1.52049 112 58 67 0.108182 -0.991858 0.067187
-1.5224 0.580772 1.52049 113 58 70 0.374681 -0.927111 0.008951
-1.57969 0.596274 1.52049 119 61 76 -0.066318 -0.53478 -0.842385
-1.57562 0.651424 1.52049 177 64 44 0.624846 -0.181801 -0.759287
-1.58151 0.597151 1.52049 119 61 76 -0.286941 -0.144144 -0.947041
-1.58033 0.630318 1.52049 176 61 46 -0.114249 0.007617 -0.993423
-1.57502 0.654439 1.52049 177 64 44 0.606046 -0.142159 -0.782623
-1.58631 0.57303 1.52049 165 65 53 0.365329 -0.065095 -0.9286
-1.57904 0.630318 1.52049 176 61 46 0.573049 -0.049279 -0.818038
-1.58597 0.576045 1.52049 165 65 53 0.418052 -0.072172 -0.905552
-1.58064 0.633333 1.52049 176 61 46 -0.155845 0.005606 -0.987766
-1.58572 0.577597 1.52049 165 65 53 0.517674 -0.042794 -0.854507
-1.57915 0.633333 1.52049 176 61 46 0.58047 0.067032 -0.811518
-1.57815 0.597151 1.52049 119 61 76 0.416659 0.077867 -0.905722
-1.57419 0.657454 1.52049 177 64 44 0.587875 -0.198005 -0.784345
-1.58021 0.636348 1.52049 178 69 51 -0.007243 0.054838 -0.998469
-1.57282 0.594136 1.52049 119 61 76 -0.582 -0.081911 -0.809053
-1.57366 0.658275 1.52049 177 64 44 0.549859 -0.351975 -0.757475
-1.52001 0.582076 1.52049 111 61 68 0.574397 -0.817573 -0.040529
-1.57221 0.660469 1.52049 177 64 44 0.516311 -0.316141 -0.795913
-1.51939 0.58286 1.52049 109 62 68 0.887447 -0.450032 -0.09954
-1.57277 0.597151 1.52049 119 61 76 -0.594751 0.09452 -0.798334
-1.51855 0.585091 1.52049 121 78 82 0.929733 -0.338461 -0.145055
-1.57969 0.598896 1.52049 116 60 76 0.123819 0.451157 -0.883813
-1.51756 0.588106 1.52049 120 80 82 0.965807 -0.215917 -0.143514
-1.57183 0.600166 1.52049 119 61 76 -0.607406 0.175067 -0.774861
-1.5172 0.591121 1.52049 114 73 76 0.984028 -0.09229 -0.152219
-1.57065 0.663484 1.52049 177 64 44 0.519945 -0.270122 -0.810365
-1.57106 0.603182 1.52049 119 61 76 -0.609231 0.15494 -0.777709
-1.51703 0.594136 1.52049 110 68 72 0.987575 -0.054543 -0.147382
-1.58572 0.604659 1.52049 174 63 50 0.624724 -0.161853 -0.763887
-1.51685 0.597151 1.52049 109 67 72 0.984498 0.012578 -0.174946
-1.57065 0.663497 1.52049 177 64 44 0.543604 -0.427944 -0.722052
-1.58545 0.606197 1.52049 176 63 49 0.428564 -0.081303 -0.899846
-1.51712 0.600166 1.52049 109 70 74 0.975784 0.12619 -0.178665
-1.58485 0.609212 1.52049 176 63 49 0.538396 -0.14308 -0.830457
-1.56821 0.666499 1.52049 171 63 45 0.515963 -0.456238 -0.725003
-1.58344 0.612227 1.52049 172 67 57 0.674517 -0.185915 -0.714466
-1.56763 0.667047 1.52049 171 63 45 0.499409 -0.50609 -0.703181
-1.56501 0.669515 1.52049 171 63 45 0.487287 -0.49394 -0.720121
-1.56462 0.670448 1.52049 171 63 45 0.58684 -0.22142 -0.77884
-1.58348 0.615242 1.52049 171 65 54 0.720806 -0.001384 -0.693136
-1.56412 0.67253 1.52049 171 63 45 0.627025 -0.095004 -0.773184
-1.56383 0.675545 1.52049 171 63 45 0.640928 -0.049739 -0.765988
-1.57065 0.605538 1.52049 177 62 46 -0.759362 0.152476 -0.63255
-1.58312 0.618257 1.52049 177 61 45 0.479548 0.085784 -0.873312
-1.58317 0.621272 1.52049 178 61 43 0.379905 -0.040751 -0.924128
-1.57953 0.636348 1.52049 178 69 51 0.608361 0.148711 -0.779604
-1.57969 0.636519 1.52049 178 69 51 0.001195 0.256844 -0.966452
-1.58271 0.639363 1.52049 178 69 51 0.239586 -0.108903 -0.964748
-1.57969 0.642103 1.52049 182 67 46 0.210183 -0.27978 -0.936775
-1.57861 0.642378 1.52049 182 67 46 0.313073 -0.310106 -0.897675
-1.57706 0.645393 1.52049 182 67 46 0.372828 -0.128896 -0.918904
-1.57714 0.648409 1.52049 180 61 40 0.545511 -0.130864 -0.827824
-1.57668 0.64948 1.52049 180 61 40 0.576924 -0.287667 -0.764464
-1.56724 0.615242 1.52049 134 59 59 -0.667839 0.365917 -0.648148
-1.56487 0.618257 1.52049 134 59 59 -0.512845 0.392367 -0.763569
-1.56462 0.584293 1.52049 144 82 82 -0.235507 -0.932156 -0.274993
-1.56462 0.618623 1.52049 134 59 59 -0.558908 0.410525 -0.72048
-1.56636 0.585091 1.52049 144 82 82 -0.337306 -0.79131 -0.509955
-1.53748 0.623861 1.52049 98 41 56 0.292061 0.829328 -0.476356
-1.5616 0.583491 1.52049 144 82 82 -0.288245 -0.951603 -0.106611
-1.53892 0.624287 1.52049 98 41 56 0.236038 0.813021 -0.532243
-1.55859 0.582607 1.52049 144 82 82 -0.206068 -0.977928 -0.034543
-1.56763 0.585793 1.52049 126 82 88 -0.446273 -0.542496 -0.711715
-1.53446 0.622754 1.52049 98 41 56 0.40293 0.817008 -0.412486
-1.56986 0.588106 1.52049 126 82 88 -0.511958 -0.462253 -0.724031
-1.5405 0.624741 1.52049 98 41 56 0.237714 0.790828 -0.563989
-1.55557 0.582232 1.52049 128 74 80 -0.013297 -0.999342 -0.033755
-1.55256 0.582487 1.52049 118 63 73 -0.033402 -0.996673 -0.074346
-1.54954 0.581648 1.52049 152 98 88 -0.048188 -0.96747 -0.248354
-1.5512 0.582076 1.52049 152 98 88 -0.204508 -0.965228 -0.162825
-1.54653 0.581715 1.52049 151 97 88 0.090724 -0.962187 -0.256839
-1.54502 0.582076 1.52049 112 57 75 0.101006 -0.973901 -0.20326
-1.5405 0.581653 1.52049 112 57 75 -0.273154 -0.960446 -0.054127
-1.5418 0.582076 1.52049 112 57 75 -0.141181 -0.980898 -0.133815
-1.54351 0.582215 1.52049 112 57 75 0.000978 -0.999999 0.000978
-1.53748 0.580648 1.52049 112 57 75 -0.222542 -0.974661 -0.022611
-1.55854 0.627303 1.52049 113 53 69 -0.401674 0.705822 -0.583501
-1.55557 0.628982 1.52049 113 53 69 -0.25797 0.7201 -0.644133
-1.55256 0.629362 1.52049 113 53 69 0.084482 0.831928 -0.548414
-1.54954 0.62793 1.52049 112 53 69 0.426414 0.769506 -0.475427
-1.54814 0.627303 1.52049 113 53 69 0.311405 0.834065 -0.455371
-1.56373 0.67856 1.52049 174 65 46 0.595386 -0.004106 -0.803429
-1.56391 0.681575 1.52049 174 65 46 0.561814 0.026227 -0.826847
-1.56309 0.621272 1.52049 120 48 49 -0.741022 0.440652 -0.506668
-1.5616 0.623674 1.52049 120 48 49 -0.717295 0.484299 -0.500942
-1.56119 0.624287 1.52049 120 48 49 -0.646014 0.541437 -0.538064
-1.55859 0.627259 1.52049 120 48 49 -0.549555 0.617193 -0.563083
-1.59175 0.579061 1.51752 178 65 47 0.383037 -0.043437 -0.922711
-1.59175 0.582076 1.51759 178 65 47 0.363847 0.029781 -0.930982
-1.58874 0.579061 1.51877 178 65 47 0.412747 -0.046751 -0.909645
-1.58874 0.582076 1.51873 178 65 47 0.374681 0.008951 -0.927111
-1.59175 0.585091 1.51785 178 65 47 0.415688 0.128229 -0.900423
-1.58271 0.624287 1.52027 177 62 46 0.372371 -0.027247 -0.927684
-1.58874 0.585091 1.51867 178 65 47 0.384487 0.247912 -0.889218
-1.58271 0.627303 1.5199 177 62 46 0.288238 0.031195 -0.957051
-1.58874 0.627303 1.51817 178 59 39 0.357551 0.146081 -0.922398
-1.58572 0.579061 1.52033 178 64 45 0.410374 -0.107115 -0.905605
-1.58572 0.582076 1.51976 178 64 45 0.363537 0.021838 -0.931324
-1.58874 0.630318 1.51918 178 59 39 0.453389 0.099661 -0.885723
-1.56462 0.618257 1.52018 134 59 59 -0.747062 0.476603 -0.463409
-1.58874 0.633333 1.5187 179 64 43 0.499856 -0.135529 -0.855439
-1.57969 0.651424 1.51762 177 64 44 0.50238 -0.203668 -0.840318
-1.57668 0.651424 1.51948 177 64 44 0.570924 -0.221252 -0.790629
-1.58572 0.627303 1.51918 179 62 42 0.302219 0.188017 -0.934512
-1.58572 0.585091 1.52047 179 64 45 0.418568 0.101513 -0.902494
-1.58572 0.630318 1.52016 179 62 42 0.317997 0.140574 -0.937612
-1.59175 0.588106 1.51788 179 64 45 0.626305 -0.101206 -0.772981
-1.58572 0.633333 1.52009 181 70 48 0.362231 -0.076189 -0.928969
-1.57668 0.654439 1.51901 177 64 44 0.593629 -0.148033 -0.791006
-1.58874 0.588106 1.5204 179 64 45 0.526823 0.054499 -0.848226
-1.53446 0.621272 1.51764 98 41 56 0.369569 0.838213 -0.401021
-1.57668 0.657454 1.51846 177 64 44 0.591274 -0.232453 -0.772244
-1.58874 0.636348 1.5178 179 60 41 0.509436 -0.204077 -0.835959
-1.58874 0.591121 1.51964 179 64 45 0.60708 -0.178016 -0.774445
-1.5405 0.624287 1.51982 98 41 56 0.26118 0.829903 -0.492997
-1.58572 0.636348 1.51979 178 66 45 0.503962 -0.083288 -0.859701
-1.57668 0.660469 1.51759 177 64 44 0.529378 -0.225561 -0.817851
-1.58572 0.639363 1.51999 181 66 46 0.488917 -0.116136 -0.864565
-1.57366 0.660469 1.51941 177 64 44 0.525101 -0.291723 -0.799479
-1.57065 0.591121 1.51932 169 64 51 -0.650396 -0.1962 -0.733819
-1.58271 0.639363 1.52049 181 67 47 0.147915 -0.265181 -0.952786
-1.57366 0.663484 1.51835 177 64 44 0.511885 -0.312202 -0.800315
-1.58874 0.594136 1.51897 180 65 46 0.68947 -0.035394 -0.723448
-1.57969 0.630318 1.52026 176 61 46 -0.07963 -0.042542 -0.995916
-1.57065 0.666499 1.51891 177 64 44 0.465895 -0.366632 -0.805309
-1.58874 0.597151 1.51922 178 63 46 0.625522 0.006904 -0.780176
-1.57969 0.633333 1.52028 176 61 46 0.064536 0.022217 -0.997668
-1.57065 0.669515 1.51773 177 64 44 0.390274 -0.307628 -0.867785
-1.58874 0.600166 1.51896 179 63 44 0.671514 -0.234322 -0.702967
-1.57969 0.636348 1.52041 178 69 51 0.00102 0.045917 -0.998945
-1.56763 0.669515 1.51904 171 63 45 0.431138 -0.315961 -0.845156
-1.58572 0.642378 1.51918 181 65 44 0.317963 -0.388621 -0.864797
-1.55557 0.627303 1.51845 113 53 69 -0.377518 0.737059 -0.560557
-1.56763 0.67253 1.5183 171 63 45 0.468968 -0.156323 -0.869271
-1.56462 0.67253 1.52007 171 63 45 0.532968 -0.108327 -0.839172
-1.58271 0.642378 1.51962 181 64 45 0.240955 -0.376954 -0.894341
-1.56763 0.675545 1.51801 171 63 45 0.49335 0.012098 -0.869747
-1.58271 0.645393 1.5184 181 64 45 0.338247 -0.356613 -0.870871
-1.54954 0.627303 1.51937 112 53 69 0.344359 0.834952 -0.429269
-1.58874 0.57303 1.51947 165 65 53 0.377978 -0.120454 -0.917945
-1.58874 0.576045 1.51911 165 65 53 0.412341 -0.095156 -0.906047
-1.57969 0.642378 1.52029 182 67 46 0.277119 -0.291628 -0.91551
-1.56462 0.675545 1.51973 171 63 45 0.538606 -0.009497 -0.842504
-1.57969 0.645393 1.51928 182 67 46 0.367741 -0.263523 -0.891809
-1.57969 0.648409 1.5184 180 61 40 0.497874 -0.262121 -0.826689
-1.57969 0.597151 1.52022 119 61 76 0.000978 0.000978 -0.999999
-1.56462 0.585091 1.51874 144 82 82 -0.495771 -0.794197 -0.351372
-1.57065 0.594136 1.519 119 61 76 -0.726297 -0.126766 -0.675591
-1.56763 0.588106 1.51833 126 82 88 -0.559189 -0.58622 -0.58622
-1.57065 0.597151 1.51853 119 61 76 -0.737059 0.041184 -0.674572
-1.54954 0.582076 1.51864 152 98 88 -0.055951 -0.982119 -0.179757
-1.57065 0.600166 1.51924 119 61 76 -0.797067 0.132102 -0.589265
-1.57065 0.603182 1.51999 119 61 76 -0.80924 0.131668 -0.572533
-1.54653 0.582076 1.51874 151 97 88 0.014848 -0.985692 -0.167899
-1.58572 0.606197 1.52028 174 63 50 0.84295 -0.136338 -0.52043
-1.58572 0.609212 1.51947 175 65 53 0.798175 -0.265013 -0.541003
-1.54351 0.582076 1.51936 112 57 75 -0.095537 -0.99105 0.093235
-1.58572 0.612227 1.51765 177 66 53 0.766323 -0.101102 -0.634451
-1.58572 0.615242 1.51803 175 65 52 0.649324 0.149149 -0.745743
-1.58874 0.618257 1.51756 179 61 43 0.550759 0.090595 -0.829733
-1.58874 0.621272 1.51782 179 61 43 0.503776 0.006717 -0.863808
-1.58572 0.618257 1.51953 179 61 44 0.460257 0.165108 -0.872297
-1.58572 0.621272 1.51935 178 59 40 0.413263 -0.098133 -0.905309
-1.58874 0.624287 1.51778 179 61 43 0.377326 0.016741 -0.925929
-1.58572 0.624287 1.51875 179 58 40 0.385363 -0.038142 -0.921977
-1.6008 0.552674 1.52049 168 61 40 0.325661 -0.244607 -0.913298
-1.58736 0.567 1.52049 165 65 53 0.311062 -0.087937 -0.946312
-1.59877 0.55494 1.52049 168 61 40 0.289028 -0.286124 -0.913562
-1.56989 0.609212 1.52049 134 59 59 -0.737558 0.275588 -0.61649
-1.54653 0.626675 1.52049 157 76 73 0.303028 0.843816 -0.442887
-1.59242 0.56097 1.52049 165 65 53 0.27878 -0.284558 -0.917229
-1.58874 0.564902 1.52049 165 65 53 0.299683 -0.245195 -0.921992
-1.60683 0.55494 1.51774 178 62 39 0.338433 -0.236758 -0.910719
-1.59477 0.567 1.51806 165 65 53 0.311219 -0.217427 -0.925131
-1.6008 0.55494 1.51984 168 61 40 0.307492 -0.275431 -0.910816
-1.58874 0.567 1.52003 165 65 53 0.325592 -0.108531 -0.939261
-1.59477 0.57303 1.51677 165 65 53 0.372572 -0.153247 -0.915262
-1.60683 0.56097 1.51596 165 65 53 0.318739 -0.277611 -0.906277
-1.6008 0.56097 1.51797 165 65 53 0.294823 -0.2803 -0.913516
-1.6008 0.57303 1.5145 165 65 53 0.341667 -0.239894 -0.908688
-1.57954 0.579061 1.52351 176 63 45 0.280835 0.051633 -0.958366
-1.57951 0.582076 1.52351 176 63 45 0.190136 -0.089548 -0.977665
-1.57366 0.628767 1.52351 135 46 49 0.215593 0.223729 -0.950508
-1.57668 0.584587 1.52351 176 63 45 0.06339 -0.17821 -0.981948
-1.57366 0.583832 1.52351 156 83 71 0.071005 -0.477546 -0.875733
-1.57485 0.630318 1.52351 135 46 49 0.410088 0.077658 -0.908734
-1.57065 0.584208 1.52351 161 76 61 -0.020939 -0.758005 -0.651912
-1.57234 0.627303 1.52351 129 46 49 0.274483 0.114258 -0.95478
-1.54653 0.580809 1.52351 117 64 74 0.055281 -0.947489 -0.314973
-1.57485 0.633333 1.52351 129 46 49 0.465583 0.001319 -0.885003
-1.54351 0.58113 1.52351 117 64 74 0.008861 -0.93551 -0.35319
-1.57969 0.602901 1.52351 106 52 73 0.341079 0.43853 -0.831478
-1.55859 0.630438 1.52351 101 45 59 -0.26561 0.644145 -0.717307
-1.57497 0.636348 1.52351 159 51 39 0.393072 0.032866 -0.91892
-1.57986 0.603182 1.52351 106 52 73 0.489017 0.012058 -0.872191
-1.55557 0.631647 1.52351 101 45 59 -0.162637 0.691586 -0.703746
-1.57885 0.603182 1.52351 106 53 73 -0.005744 0.187267 -0.982292
-1.5751 0.639363 1.52351 169 61 47 0.366944 -0.032416 -0.929678
-1.5405 0.580966 1.52351 117 64 74 -0.094826 -0.954752 -0.281879
-1.56729 0.663484 1.52351 178 62 40 0.557835 -0.454594 -0.69438
-1.55256 0.631782 1.52351 101 45 59 0.223773 0.718266 -0.658802
-1.56462 0.666462 1.52351 178 62 40 0.511958 -0.462253 -0.724031
-1.57446 0.642378 1.52351 175 63 46 0.621512 -0.171714 -0.764354
-1.53748 0.580432 1.52351 127 84 85 -0.167325 -0.977922 -0.125184
-1.57368 0.645393 1.52351 179 67 47 0.653015 -0.168962 -0.738257
-1.57977 0.606197 1.52351 107 44 64 0.500795 -0.170894 -0.848528
-1.53446 0.58005 1.52351 127 84 85 -0.099909 -0.993475 -0.055006
-1.57949 0.606197 1.52351 103 44 65 0.020437 -0.241636 -0.970152
-1.56456 0.666499 1.52351 177 66 46 0.621007 -0.460315 -0.634398
-1.57366 0.645473 1.52351 179 65 46 0.58808 -0.160932 -0.79263
-1.57969 0.60627 1.52351 103 43 62 0.001314 -0.456129 -0.889912
-1.56204 0.669515 1.52351 180 69 46 0.641993 -0.457609 -0.615174
-1.53145 0.579966 1.52351 111 62 68 0.061026 -0.998136 0.001034
-1.57276 0.648409 1.52351 175 64 45 0.515441 -0.152122 -0.843315
-1.5616 0.670443 1.52351 178 66 46 0.703369 -0.318537 -0.635457
-1.57065 0.621645 1.52351 103 44 62 0.16479 0.149695 -0.974903
-1.57164 0.651424 1.52351 175 64 45 0.586836 -0.177416 -0.79003
-1.52843 0.580426 1.52351 111 62 68 0.114018 -0.992292 0.048542
-1.57149 0.624287 1.52351 103 44 62 0.330793 0.091666 -0.939241
-1.52542 0.580789 1.52351 112 58 66 0.075589 -0.995809 0.051488
-1.54653 0.628736 1.52351 97 42 59 0.200702 0.789021 -0.580658
-1.5224 0.580885 1.52351 111 58 66 0.235753 -0.969208 0.0711
-1.56763 0.583468 1.52351 150 90 79 -0.144362 -0.858879 -0.491413
-1.52012 0.582076 1.52351 110 61 67 0.498382 -0.86561 0.04832
-1.56072 0.67253 1.52351 178 66 46 0.77257 -0.185111 -0.607347
-1.51939 0.582663 1.52351 110 61 68 0.795618 -0.604782 -0.03508
-1.57792 0.57303 1.52351 179 63 43 0.338302 0.037303 -0.940298
-1.51774 0.585091 1.52351 112 66 70 0.886372 -0.44532 -0.126625
-1.5786 0.576045 1.52351 179 63 43 0.314568 0.0744 -0.946315
-1.51706 0.588106 1.52351 111 68 71 0.969381 -0.183605 -0.163061
-1.56044 0.675545 1.52351 178 66 46 0.706137 -0.140023 -0.694092
-1.51664 0.591121 1.52351 106 63 66 0.986477 -0.091187 -0.136188
-1.56462 0.583315 1.52351 156 93 82 -0.056731 -0.930132 -0.362817
-1.55975 0.67856 1.52351 174 65 46 0.570343 -0.144447 -0.808606
-1.51652 0.594136 1.52351 99 54 62 0.983458 -0.05799 -0.171602
-1.5616 0.583182 1.52351 149 86 74 -0.135151 -0.966652 -0.217529
-1.55859 0.681296 1.52351 174 65 46 0.460256 -0.198104 -0.865401
-1.51637 0.595505 1.52351 96 48 57 0.982531 -0.06312 -0.175069
-1.55859 0.582587 1.52351 149 86 74 -0.200867 -0.974392 -0.101057
-1.55847 0.681575 1.52351 180 67 46 0.580783 -0.078872 -0.810228
-1.55557 0.581988 1.52351 140 96 89 -0.166105 -0.963931 -0.207958
-1.55601 0.582076 1.52351 140 96 89 -0.184063 -0.969226 -0.163468
-1.55256 0.581399 1.52351 140 96 89 -0.189942 -0.952402 -0.238437
-1.5708 0.654439 1.52351 178 64 44 0.590307 -0.167581 -0.789592
-1.57065 0.65496 1.52351 180 63 41 0.584152 -0.208075 -0.78452
-1.54954 0.580857 1.52351 134 93 90 -0.129717 -0.948136 -0.290191
-1.56972 0.657454 1.52351 168 57 40 0.589792 -0.239359 -0.771267
-1.56812 0.660469 1.52351 178 63 42 0.619173 -0.286388 -0.731168
-1.56763 0.662452 1.52351 178 60 38 0.628494 -0.189009 -0.7545
-1.51634 0.597151 1.52351 97 51 59 0.980491 0.001149 -0.196558
-1.51637 0.598065 1.52351 94 51 59 0.980469 0.091348 -0.17417
-1.5166 0.600166 1.52351 94 51 59 0.979514 0.117049 -0.163868
-1.56763 0.621477 1.52351 120 48 49 -0.210346 0.277211 -0.937501
-1.56497 0.624287 1.52351 120 48 49 -0.328409 0.298688 -0.896065
-1.56462 0.624812 1.52351 120 48 49 -0.303384 0.309303 -0.901271
-1.56211 0.627303 1.52351 120 48 49 -0.428924 0.435399 -0.791487
-1.5616 0.627824 1.52351 109 45 56 -0.363698 0.472648 -0.8027
-1.55876 0.630318 1.52351 109 45 56 -0.437322 0.560371 -0.703373
-1.58271 0.579061 1.52281 177 62 43 0.454022 -0.081918 -0.887217
-1.58271 0.582076 1.52153 177 62 43 0.533833 -0.189034 -0.82419
-1.54351 0.582076 1.52092 117 64 74 0.00125 -0.940919 -0.338631
-1.58271 0.585091 1.52142 177 62 43 0.437081 0.164087 -0.884328
-1.55859 0.627303 1.52053 101 45 59 -0.456441 0.603572 -0.65373
-1.55859 0.630318 1.52339 101 45 59 -0.337672 0.67045 -0.660662
-1.55557 0.630318 1.52208 101 45 59 -0.199168 0.733371 -0.649999
-1.57065 0.663484 1.5205 178 63 42 0.655378 -0.206064 -0.726648
-1.58572 0.588106 1.52154 177 65 45 0.372729 0.140995 -0.917166
-1.55256 0.630318 1.52157 101 45 59 0.158615 0.774947 -0.6118
-1.56763 0.663484 1.52315 178 63 42 0.583954 -0.437549 -0.683775
-1.58271 0.588106 1.5227 174 65 47 0.326955 0.181018 -0.927541
-1.56763 0.666499 1.52079 178 63 42 0.556786 -0.502957 -0.661078
-1.58572 0.591121 1.52146 173 66 49 0.485642 -0.001331 -0.874156
-1.56462 0.666499 1.52345 178 62 40 0.56928 -0.532117 -0.626715
-1.54653 0.627303 1.52155 97 42 59 0.245364 0.786104 -0.567307
-1.58271 0.591121 1.52285 174 65 47 0.269266 -0.02582 -0.96272
-1.56462 0.669515 1.52071 178 63 42 0.632726 -0.464894 -0.619299
-1.51637 0.597151 1.52332 96 48 57 0.986241 0.001125 -0.165311
-1.57969 0.579061 1.52346 176 60 41 0.217764 0.054745 -0.974465
-1.5616 0.67253 1.52253 178 66 46 0.657172 -0.149563 -0.738752
-1.57969 0.582076 1.52345 176 60 41 0.453732 -0.118056 -0.883284
-1.5616 0.675545 1.52228 178 66 46 0.65576 -0.055718 -0.75291
-1.57065 0.615242 1.52204 120 48 49 -0.230719 0.180041 -0.956218
-1.57969 0.585091 1.52321 176 63 45 0.231452 0.022785 -0.972579
-1.56763 0.615242 1.52077 120 48 49 -0.380012 0.295229 -0.876602
-1.57668 0.585091 1.52339 176 63 45 -0.107721 -0.184487 -0.976914
-1.5616 0.67856 1.52202 174 65 46 0.620536 -0.05254 -0.782416
-1.57366 0.651424 1.52189 177 64 44 0.574126 -0.197499 -0.79459
-1.57366 0.585091 1.52292 156 83 71 -0.190295 -0.364851 -0.911412
-1.57065 0.618257 1.52282 120 48 49 -0.108903 0.239586 -0.964748
-1.56763 0.618257 1.52219 120 48 49 -0.308431 0.369206 -0.876674
-1.57065 0.585091 1.5224 161 76 61 -0.267169 -0.595992 -0.757242
-1.5616 0.681575 1.52203 174 65 46 0.495601 -0.020256 -0.868314
-1.57366 0.654439 1.52136 177 64 44 0.572538 -0.160791 -0.803957
-1.57969 0.588106 1.52329 174 71 53 0.017527 -0.040209 -0.999038
-1.55859 0.681575 1.52344 174 65 46 0.424592 -0.006532 -0.905361
-1.57366 0.657454 1.52084 177 64 44 0.538441 -0.185513 -0.821989
-1.57668 0.588106 1.52305 173 71 53 -0.155311 -0.140401 -0.977837
-1.57065 0.657454 1.52282 180 63 41 0.552601 -0.283426 -0.783774
-1.57065 0.621272 1.52344 120 48 49 0.061681 0.197138 -0.978433
-1.57969 0.591121 1.52306 173 71 53 -0.079763 -0.155955 -0.984538
-1.57065 0.660469 1.52129 177 64 44 0.590466 -0.26753 -0.761432
-1.56763 0.621272 1.52344 120 48 49 -0.216912 0.368314 -0.904043
-1.56462 0.621272 1.52199 120 48 49 -0.517637 0.378086 -0.767531
-1.57668 0.591121 1.52249 173 71 53 -0.224047 -0.176321 -0.958496
-1.56462 0.624287 1.5233 120 48 49 -0.567548 0.323165 -0.757267
-1.5616 0.624287 1.52097 120 48 49 -0.565486 0.42287 -0.708101
-1.57366 0.588106 1.52229 132 85 82 -0.315667 -0.227109 -0.92129
-1.5616 0.627303 1.52316 120 48 49 -0.575507 0.488258 -0.656045
-1.57065 0.588106 1.52096 127 85 83 -0.320698 -0.332743 -0.886812
-1.57366 0.591121 1.52142 131 85 82 -0.339036 -0.210288 -0.91697
-1.58572 0.594136 1.52154 159 77 69 0.423693 -0.041434 -0.904858
-1.58271 0.594136 1.52252 144 75 74 0.026341 -0.304807 -0.95205
-1.58572 0.597151 1.52126 144 75 74 0.181309 -0.102372 -0.978083
-1.58271 0.597151 1.52118 129 73 79 -0.177591 -0.209162 -0.96162
-1.58572 0.600166 1.52128 163 66 60 0.228127 -0.020304 -0.97342
-1.58271 0.600166 1.5212 141 66 69 -0.010443 0.196105 -0.980527
-1.58572 0.603182 1.52064 141 62 65 0.400624 -0.158253 -0.902472
-1.58271 0.603182 1.52192 117 53 66 0.376611 0.073714 -0.923434
-1.58572 0.57303 1.52072 178 63 43 0.357931 -0.011464 -0.933678
-1.58572 0.576045 1.5206 178 63 43 0.502641 -0.04269 -0.863441
-1.58271 0.57303 1.52184 178 63 43 0.335987 0.039906 -0.941021
-1.57969 0.594136 1.52239 109 54 72 -0.108535 -0.444008 -0.889425
-1.58271 0.576045 1.52239 178 63 43 0.391611 0.091421 -0.915578
-1.57668 0.594136 1.52178 109 54 72 -0.141548 -0.255315 -0.95644
-1.57969 0.57303 1.52287 179 63 43 0.321446 0.013758 -0.946828
-1.57668 0.597151 1.52159 109 54 72 -0.065555 0.12306 -0.990232
-1.57969 0.576045 1.5231 179 63 43 0.25913 0.101847 -0.960458
-1.57366 0.594136 1.52084 109 54 72 -0.327074 -0.077499 -0.941815
-1.58271 0.630318 1.52088 179 64 45 0.023717 0.031966 -0.999207
-1.57366 0.597151 1.52092 109 54 72 -0.32172 0.12896 -0.938011
-1.57969 0.600166 1.52201 106 53 73 0.230422 0.489838 -0.840812
-1.57668 0.600166 1.52251 106 53 73 0.001269 0.366791 -0.930303
-1.58271 0.633333 1.52069 179 64 45 -0.027565 -0.017355 -0.999469
-1.57668 0.603182 1.52346 106 53 73 -0.216133 0.12661 -0.96812
-1.58271 0.636348 1.52073 178 63 42 0.001009 -0.033281 -0.999445
-1.57366 0.600166 1.5216 109 54 72 -0.385042 0.215214 -0.897455
-1.57969 0.627303 1.52112 168 57 43 0.360312 -0.170972 -0.91703
-1.57366 0.603182 1.52235 109 54 72 -0.419076 0.128404 -0.898826
-1.57668 0.627303 1.52229 163 55 42 0.36373 0.001267 -0.931504
-1.57668 0.630318 1.5224 163 55 42 0.554231 -0.023379 -0.832034
-1.58271 0.606197 1.52171 156 65 65 0.409741 -0.11607 -0.904787
-1.57668 0.633333 1.52234 168 57 43 0.562918 0.040508 -0.82552
-1.58271 0.609212 1.52169 152 64 65 0.281883 -0.123076 -0.951522
-1.57366 0.627303 1.52305 135 46 49 0.222185 0.110458 -0.968727
-1.58271 0.612227 1.52096 152 63 65 0.2965 -0.115675 -0.948002
-1.58271 0.615242 1.52095 152 63 65 0.253588 -0.048244 -0.966109
-1.57668 0.636348 1.52278 178 64 46 0.540913 0.099528 -0.835169
-1.57668 0.606197 1.5233 103 44 65 -0.180964 -0.081373 -0.980118
-1.57969 0.639363 1.52121 177 64 46 0.390772 -0.038156 -0.919696
-1.57668 0.639363 1.5228 177 68 50 0.47364 -0.209003 -0.85556
-1.57969 0.609212 1.52199 103 43 62 0.229587 -0.235086 -0.94447
-1.57668 0.609212 1.52264 101 44 66 0.005818 -0.205948 -0.978546
-1.57668 0.642378 1.52113 179 64 44 0.557066 -0.27301 -0.784311
-1.57366 0.606197 1.52252 105 44 63 -0.367798 -0.03509 -0.929243
-1.57065 0.606197 1.52059 105 44 63 -0.491902 0.056811 -0.868795
-1.57668 0.645393 1.52065 179 64 44 0.652701 -0.107556 -0.749943
-1.57366 0.609212 1.52234 105 44 63 -0.267681 -0.046066 -0.962406
-1.57065 0.609212 1.52104 105 44 63 -0.363928 0.104953 -0.925495
-1.57969 0.612227 1.52166 106 43 60 0.166265 -0.117001 -0.979115
-1.57668 0.648409 1.52076 179 61 40 0.541994 -0.028961 -0.839883
-1.57668 0.612227 1.52206 102 42 61 0.071609 -0.101161 -0.99229
-1.57969 0.615242 1.52139 115 43 57 0.133589 -0.046813 -0.989931
-1.57366 0.648409 1.5228 179 65 46 0.598161 -0.161217 -0.784992
-1.57668 0.615242 1.52176 101 43 62 0.1557 -0.01932 -0.987615
-1.57366 0.612227 1.52215 105 44 63 -0.133805 0.02811 -0.990609
-1.57065 0.612227 1.52169 105 44 63 -0.304376 0.151506 -0.940426
-1.56763 0.585091 1.52122 150 90 79 -0.263313 -0.764711 -0.588118
-1.57366 0.615242 1.52223 105 44 63 0.024529 0.071453 -0.997142
-1.58271 0.618257 1.5206 166 63 57 0.263299 -0.013347 -0.964622
-1.58271 0.621272 1.52066 166 63 57 0.291492 -0.021087 -0.956341
-1.55557 0.582076 1.52264 140 96 89 -0.09039 -0.992002 -0.088102
-1.55256 0.582076 1.52166 140 96 89 -0.168861 -0.940406 -0.295164
-1.57969 0.618257 1.52138 157 58 54 0.180989 0.017292 -0.983333
-1.57668 0.618257 1.52178 115 43 57 0.168985 0.040789 -0.984774
-1.57969 0.621272 1.52156 174 62 48 0.25186 0.013256 -0.967673
-1.57668 0.621272 1.52208 116 45 56 0.149976 0.072036 -0.986062
-1.57366 0.618257 1.52249 104 44 62 0.180949 0.063512 -0.98144
-1.57366 0.621272 1.52243 102 44 62 0.242516 0.050473 -0.968834
-1.57969 0.624287 1.52144 172 62 48 0.327985 -0.069256 -0.942141
-1.57668 0.624287 1.52235 146 53 48 0.206068 0.034543 -0.977928
-1.57366 0.624287 1.52271 106 45 61 0.2057 0.098487 -0.973647
-1.54653 0.57977 1.52652 117 64 74 -0.003761 -0.941423 -0.337207
-1.57065 0.578139 1.52652 173 63 44 0.259517 -0.223435 -0.939536
-1.56985 0.579061 1.52652 173 63 44 0.402915 -0.193457 -0.894558
-1.54351 0.579935 1.52652 117 64 74 0.030371 -0.912462 -0.408033
-1.5405 0.579785 1.52652 120 72 77 -0.00378 -0.936167 -0.351535
-1.56763 0.582027 1.52652 150 90 79 0.353873 -0.305686 -0.883929
-1.53748 0.579992 1.52652 127 84 85 -0.003526 -0.974464 -0.224515
-1.56722 0.582076 1.52652 150 90 79 0.037774 -0.80725 -0.588999
-1.53446 0.579749 1.52652 127 84 85 -0.003134 -0.997687 -0.067905
-1.56462 0.58223 1.52652 150 90 79 0.026943 -0.935302 -0.352823
-1.53145 0.579973 1.52652 111 62 68 0.103049 -0.99392 -0.038782
-1.55859 0.581995 1.52652 149 86 74 -0.147658 -0.912667 -0.381098
-1.55932 0.582076 1.52652 149 86 74 -0.083795 -0.935043 -0.34449
-1.52843 0.580403 1.52652 111 62 68 0.118231 -0.992015 -0.043914
-1.5616 0.582235 1.52652 149 86 74 -0.031708 -0.947442 -0.318351
-1.52542 0.580638 1.52652 112 60 69 0.12961 -0.991461 -0.014401
-1.5224 0.581288 1.52652 112 59 67 0.313869 -0.944257 0.099326
-1.54954 0.63253 1.52652 97 42 59 0.420303 0.66285 -0.619657
-1.56289 0.663484 1.52652 176 65 46 0.503608 -0.220614 -0.835289
-1.55057 0.633333 1.52652 97 42 59 0.45392 0.648218 -0.611368
-1.55557 0.581474 1.52652 140 96 89 -0.185495 -0.933053 -0.308228
-1.5616 0.666334 1.52652 176 65 46 0.604447 -0.311088 -0.733395
-1.56152 0.666499 1.52652 177 66 46 0.638409 -0.409577 -0.651675
-1.55859 0.63403 1.52652 101 45 59 -0.216977 0.552444 -0.804814
-1.52065 0.582076 1.52652 110 63 68 0.47415 -0.872379 0.118896
-1.55957 0.669515 1.52652 177 66 46 0.690967 -0.344667 -0.635428
-1.55557 0.635112 1.52652 101 45 59 -0.006921 0.665807 -0.746092
-1.55256 0.634555 1.52652 101 45 59 0.21613 0.735463 -0.64217
-1.55256 0.580742 1.52652 140 96 89 -0.243233 -0.925992 -0.28875
-1.55859 0.67246 1.52652 178 66 46 0.706035 -0.234297 -0.668296
-1.54954 0.579765 1.52652 134 93 90 -0.163538 -0.938623 -0.303713
-1.51939 0.582862 1.52652 109 63 68 0.691332 -0.714917 0.104658
-1.56493 0.639363 1.52652 152 47 37 0.213496 0.047042 -0.975811
-1.55857 0.67253 1.52652 165 56 40 0.626727 -0.319031 -0.710938
-1.56608 0.642378 1.52652 152 47 37 0.306503 0.01365 -0.951772
-1.51744 0.585091 1.52652 109 64 68 0.901862 -0.432006 -0.003915
-1.55702 0.675545 1.52652 165 56 40 0.605407 -0.285931 -0.742782
-1.56549 0.645393 1.52652 152 47 37 0.285583 -0.021017 -0.958124
-1.5165 0.588106 1.52652 107 65 68 0.978442 -0.205555 0.019968
-1.56577 0.648409 1.52652 152 47 35 0.235855 0.032657 -0.971239
-1.55578 0.67856 1.52652 180 67 46 0.584908 -0.238643 -0.775198
-1.51638 0.591121 1.52652 108 65 68 0.991049 -0.076941 -0.109096
-1.55557 0.67912 1.52652 180 67 46 0.546374 -0.2724 -0.792006
-1.56623 0.651424 1.52652 155 48 35 0.23763 0.025331 -0.971025
-1.55421 0.681575 1.52652 180 67 46 0.512961 -0.204277 -0.833752
-1.51637 0.591229 1.52652 115 74 76 0.991305 -0.093043 -0.093043
-1.51602 0.594136 1.52652 97 51 59 0.979461 -0.129689 -0.154392
-1.51574 0.597151 1.52652 97 51 59 0.980829 0.005763 -0.194783
-1.51611 0.600166 1.52652 94 47 56 0.97149 0.117488 -0.205921
-1.57237 0.567 1.52652 179 63 43 0.452885 -0.227195 -0.862136
-1.57147 0.570015 1.52652 179 63 43 0.451065 -0.07035 -0.889714
-1.57139 0.57303 1.52652 179 63 43 0.432361 0.038819 -0.900864
-1.56619 0.654439 1.52652 168 57 40 0.347777 -0.059056 -0.935716
-1.57208 0.576045 1.52652 180 64 43 0.394864 -0.040939 -0.917827
-1.56544 0.657454 1.52652 168 57 40 0.450303 -0.139551 -0.881903
-1.56462 0.659814 1.52652 170 60 42 0.462029 -0.155953 -0.873045
-1.56436 0.660469 1.52652 170 61 43 0.421238 -0.198143 -0.885041
-1.5616 0.633099 1.52652 109 45 56 0.001329 0.487672 -0.873026
-1.56279 0.633333 1.52652 109 45 56 0.158728 0.318836 -0.934424
-1.56013 0.633333 1.52652 109 45 56 -0.106506 0.470048 -0.876192
-1.56462 0.637653 1.52652 131 53 57 0.313852 0.071626 -0.946766
-1.56455 0.636348 1.52652 109 45 56 0.374167 0.159551 -0.913533
-1.57366 0.630318 1.52391 129 46 49 0.180034 0.112987 -0.97715
-1.57668 0.579061 1.5243 176 68 49 0.323658 -0.00124 -0.946173
-1.57065 0.627303 1.52399 106 43 55 0.156263 0.06227 -0.985751
-1.57668 0.582076 1.52408 176 68 49 0.178994 -0.221422 -0.95861
-1.57065 0.630318 1.52422 106 43 55 0.117319 0.13909 -0.983306
-1.57366 0.633333 1.524 147 49 43 0.264944 0.010888 -0.964202
-1.57065 0.633333 1.52463 126 46 50 0.197339 0.082122 -0.97689
-1.57366 0.579061 1.52555 175 67 48 0.306856 -0.1665 -0.937079
-1.55859 0.633333 1.5259 101 45 59 -0.278419 0.612521 -0.739798
-1.57366 0.636348 1.52393 152 45 34 0.280979 0.003649 -0.959707
-1.57366 0.582076 1.52454 175 67 48 0.237633 -0.382279 -0.892969
-1.56462 0.663484 1.52538 178 65 43 0.577404 -0.320065 -0.751108
-1.51637 0.594136 1.52442 115 74 76 0.986571 -0.086458 -0.13857
-1.5616 0.666499 1.52642 176 65 46 0.620384 -0.492608 -0.610296
-1.55557 0.633333 1.52503 101 45 59 -0.05593 0.681199 -0.729959
-1.57065 0.636348 1.52474 147 47 41 0.281249 0.04125 -0.958748
-1.55256 0.633333 1.52507 101 45 59 0.199343 0.721653 -0.662932
-1.51637 0.600166 1.52494 94 51 59 0.979013 0.117284 -0.166667
-1.5616 0.669515 1.52403 178 66 46 0.701113 -0.425972 -0.57183
-1.54954 0.630318 1.5242 97 42 59 0.427733 0.647425 -0.630782
-1.57065 0.624287 1.52384 120 48 49 0.156627 0.08489 -0.984003
-1.56763 0.624287 1.52412 120 48 49 -0.027685 0.111848 -0.99334
-1.57366 0.639363 1.52398 165 58 45 0.311647 0.021277 -0.94996
-1.55859 0.67253 1.52649 178 66 46 0.745368 -0.182133 -0.641292
-1.56763 0.627303 1.52425 120 48 49 0.043839 0.113533 -0.992567
-1.57065 0.639363 1.5248 152 45 36 0.318983 0.044837 -0.946699
-1.55859 0.675545 1.52513 178 66 46 0.631739 -0.244188 -0.735716
-1.56462 0.627303 1.52429 120 48 49 -0.140893 0.283127 -0.948677
-1.54653 0.630318 1.52595 97 42 59 0.186818 0.800432 -0.569568
-1.57366 0.642378 1.52401 170 61 45 0.405021 -0.049458 -0.912969
-1.55859 0.67856 1.52432 174 65 46 0.593252 -0.239492 -0.768567
-1.57065 0.642378 1.52508 156 46 36 0.319163 0.023969 -0.947397
-1.57366 0.645393 1.52352 172 62 46 0.456993 -0.14272 -0.877945
-1.57065 0.645393 1.52508 157 48 36 0.371528 -0.054209 -0.926838
-1.57065 0.579061 1.52619 161 76 61 0.241014 -0.202888 -0.949078
-1.57065 0.648409 1.52479 172 63 45 0.479241 -0.097545 -0.872246
-1.57065 0.651424 1.52425 174 63 44 0.561086 -0.140642 -0.815722
-1.56763 0.639363 1.52612 151 49 41 0.285136 0.057027 -0.956789
-1.57065 0.582076 1.52568 161 76 61 0.241738 -0.424918 -0.872358
-1.56763 0.642378 1.526 151 49 41 0.265556 -0.013338 -0.964003
-1.57969 0.603182 1.52361 106 53 73 0.025168 0.007047 -0.999658
-1.56763 0.582076 1.52644 150 90 79 -0.020614 -0.828689 -0.55933
-1.56763 0.645393 1.52589 152 45 34 0.269446 0.006041 -0.962997
-1.57969 0.606197 1.52354 102 46 68 -0.092664 -0.027254 -0.995324
-1.55859 0.582076 1.5262 149 86 74 -0.171558 -0.968721 -0.179297
-1.56763 0.648409 1.52608 155 47 35 0.318445 0.013737 -0.947842
-1.56763 0.651424 1.52618 159 49 36 0.416926 -0.049602 -0.907586
-1.57065 0.654439 1.5236 173 63 44 0.586929 -0.167478 -0.792127
-1.56763 0.654439 1.52585 162 53 38 0.546168 -0.156261 -0.822972
-1.56763 0.657454 1.52516 171 60 41 0.572921 -0.245091 -0.782107
-1.56763 0.630318 1.52436 98 44 62 0.178081 0.18848 -0.965796
-1.56763 0.660469 1.52396 178 66 46 0.597226 -0.246101 -0.763384
-1.56462 0.630318 1.52515 96 41 60 0.034132 0.312248 -0.949387
-1.56763 0.633333 1.52522 119 48 59 0.201307 0.185518 -0.9618
-1.56462 0.633333 1.52614 98 40 58 0.256407 0.204303 -0.94473
-1.56462 0.660469 1.5264 170 60 42 0.579901 -0.245403 -0.776848
-1.5616 0.630318 1.52495 109 45 56 -0.204473 0.516485 -0.831525
-1.56763 0.636348 1.52561 130 51 56 0.258356 0.11295 -0.959424
-1.56462 0.636348 1.52649 135 50 51 0.260441 0.093656 -0.960937
-1.57668 0.567 1.5245 179 63 43 0.381297 -0.217676 -0.89846
-1.57366 0.567 1.52586 179 63 43 0.413621 -0.191464 -0.890089
-1.57668 0.570015 1.52407 179 63 43 0.378981 -0.070975 -0.922679
-1.57366 0.570015 1.52542 179 63 43 0.427901 -0.072456 -0.900917
-1.57668 0.57303 1.52396 179 63 43 0.411772 0.016994 -0.911128
-1.57366 0.57303 1.52543 179 63 43 0.429736 0.014456 -0.902839
-1.57668 0.576045 1.52418 179 63 43 0.389853 0.051892 -0.919414
-1.57366 0.576045 1.52555 179 63 43 0.434618 0.033432 -0.899994
-1.55557 0.681575 1.5256 180 67 46 0.53296 -0.117629 -0.837924
-1.57668 0.559722 1.52652 178 63 43 0.394446 -0.296976 -0.869608
-1.57581 0.56097 1.52652 178 63 43 0.431706 -0.255994 -0.864926
-1.55272 0.687605 1.52652 180 67 46 0.479241 -0.097545 -0.872246
-1.55256 0.68867 1.52652 174 65 46 0.399389 -0.035589 -0.91609
-1.55182 0.693635 1.52652 174 65 46 0.365513 -0.037722 -0.930042
-1.58874 0.56097 1.5216 178 63 43 0.297767 -0.294833 -0.907969
-1.58271 0.56097 1.52364 178 63 43 0.341434 -0.270487 -0.900144
-1.58271 0.567 1.522 178 63 43 0.33869 -0.13575 -0.931054
-1.57668 0.56097 1.52612 178 63 43 0.374863 -0.247439 -0.893449
-1.51802 0.585091 1.52954 110 69 72 0.880945 -0.454081 0.133216
-1.56716 0.567 1.52954 173 63 44 0.520541 -0.194637 -0.831357
-1.51693 0.588106 1.52954 110 69 72 0.958028 -0.27863 0.067431
-1.55406 0.669515 1.52954 170 61 43 0.269404 -0.040969 -0.962156
-1.55296 0.67253 1.52954 170 61 43 0.215896 -0.091101 -0.972157
-1.56628 0.570015 1.52954 173 63 44 0.514854 -0.129807 -0.847394
-1.55256 0.673261 1.52954 176 64 44 0.423024 -0.215223 -0.880187
-1.56588 0.57303 1.52954 173 63 44 0.634007 0.038125 -0.772387
-1.55226 0.675545 1.52954 178 68 48 0.419414 -0.204556 -0.884448
-1.56675 0.576045 1.52954 177 62 42 0.738307 -0.012514 -0.674348
-1.56569 0.579061 1.52954 176 62 43 0.590048 -0.299022 -0.749953
-1.55023 0.67856 1.52954 180 67 46 0.393128 -0.272629 -0.878137
-1.54954 0.579004 1.52954 160 72 57 -0.121552 -0.906747 -0.403775
-1.54954 0.67949 1.52954 180 67 46 0.374855 -0.26434 -0.888599
-1.54984 0.579061 1.52954 160 72 57 -0.175778 -0.907474 -0.381568
-1.54816 0.681575 1.52954 180 67 46 0.366612 -0.213011 -0.905661
-1.54653 0.5786 1.52954 160 72 57 0.042489 -0.972395 -0.229441
-1.54653 0.684556 1.52954 177 68 48 0.32692 -0.212712 -0.920802
-1.54351 0.578652 1.52954 144 101 90 0.023156 -0.993509 -0.11137
-1.5465 0.68459 1.52954 177 68 48 0.242942 -0.240166 -0.93984
-1.51637 0.604757 1.52954 94 50 58 0.930758 0.30183 -0.206367
-1.5405 0.578872 1.52954 144 101 90 0.090416 -0.982516 -0.162748
-1.54351 0.687602 1.52954 177 68 48 0.276609 -0.245401 -0.929121
-1.51686 0.606197 1.52954 94 50 58 0.919923 0.336973 -0.200478
-1.53929 0.579061 1.52954 141 104 95 0.148735 -0.972496 -0.179244
-1.54351 0.687605 1.52954 177 68 48 0.328257 0.026615 -0.944214
-1.56462 0.580018 1.52954 157 69 54 0.254641 -0.735455 -0.627904
-1.5616 0.58066 1.52954 150 86 73 0.061322 -0.788634 -0.611797
-1.55859 0.58068 1.52954 147 101 91 -0.104729 -0.850745 -0.515038
-1.55557 0.580013 1.52954 148 95 83 -0.136502 -0.83516 -0.5328
-1.55256 0.579601 1.52954 148 95 83 -0.186543 -0.900903 -0.391886
-1.51637 0.591021 1.52954 107 66 69 0.979355 -0.188104 -0.074028
-1.53748 0.579406 1.52954 137 101 96 0.085933 -0.981576 -0.170656
-1.53446 0.579796 1.52954 130 88 89 0.073358 -0.988588 -0.131579
-1.53145 0.579838 1.52954 112 63 69 0.073302 -0.993522 -0.086835
-1.55629 0.651424 1.52954 155 57 45 0.413201 -0.131153 -0.901146
-1.55574 0.654439 1.52954 155 57 45 0.375477 -0.029882 -0.92635
-1.51635 0.591121 1.52954 103 61 66 0.938004 -0.273758 -0.212614
-1.55589 0.657454 1.52954 154 56 43 0.353394 0.07868 -0.93216
-1.51545 0.594136 1.52954 94 48 57 0.972666 -0.171647 -0.156389
-1.55729 0.660469 1.52954 153 54 40 0.334422 0.141751 -0.931702
-1.55841 0.663484 1.52954 150 47 34 0.277515 -0.128799 -0.952049
-1.55557 0.666059 1.52954 154 49 36 0.214346 -0.284394 -0.934439
-1.55437 0.666499 1.52954 153 48 36 0.139058 -0.195192 -0.970857
-1.52843 0.580086 1.52954 112 63 69 0.12306 -0.990232 -0.065555
-1.55256 0.637706 1.52954 105 52 65 0.286741 0.316151 -0.904338
-1.52542 0.580601 1.52954 113 65 70 0.253609 -0.966654 0.03553
-1.5224 0.581693 1.52954 112 66 71 0.374576 -0.922139 0.096709
-1.52182 0.582076 1.52954 110 63 69 0.51416 -0.844165 0.151743
-1.55422 0.639363 1.52954 105 52 65 0.290672 0.365976 -0.884065
-1.51939 0.583663 1.52954 109 65 70 0.611227 -0.784189 0.107001
-1.54954 0.635905 1.52954 98 45 59 0.26301 0.581141 -0.77013
-1.55076 0.636348 1.52954 98 45 59 0.301153 0.549724 -0.779173
-1.55557 0.640311 1.52954 103 51 64 0.279962 0.245855 -0.927996
-1.55652 0.642378 1.52954 103 51 64 0.363721 0.073277 -0.928621
-1.55698 0.645393 1.52954 133 52 51 0.425646 0.095666 -0.899819
-1.55784 0.648409 1.52954 151 51 39 0.452717 -0.087757 -0.887325
-1.57065 0.567 1.52746 173 63 44 0.491124 -0.19675 -0.848579
-1.56763 0.567 1.52925 173 63 44 0.507705 -0.231612 -0.829814
-1.51637 0.591121 1.52802 107 66 69 0.986948 -0.160138 -0.017036
-1.57065 0.570015 1.52695 173 63 44 0.490752 -0.080151 -0.867605
-1.56763 0.570015 1.52874 173 63 44 0.501226 -0.122779 -0.856562
-1.55859 0.669515 1.52736 177 65 45 0.554433 -0.223935 -0.801534
-1.51637 0.603182 1.52721 96 50 58 0.95252 0.235772 -0.19266
-1.55557 0.669515 1.52902 177 65 45 0.366817 -0.143658 -0.919134
-1.57065 0.57303 1.52685 173 63 44 0.436634 -0.038961 -0.898795
-1.55557 0.67253 1.52914 177 65 45 0.458567 -0.218007 -0.861504
-1.55557 0.675545 1.52753 178 64 43 0.464637 -0.276313 -0.841287
-1.56763 0.57303 1.52819 173 63 44 0.438135 -0.090409 -0.894351
-1.55256 0.675545 1.52932 176 64 44 0.511649 -0.161652 -0.843851
-1.57065 0.576045 1.52703 177 60 41 0.324163 -0.063791 -0.943848
-1.56763 0.576045 1.52782 177 60 41 0.539877 -0.054689 -0.839965
-1.55557 0.67856 1.52666 180 67 46 0.511274 -0.231839 -0.827557
-1.56763 0.579061 1.52794 176 64 46 0.527918 -0.368731 -0.765075
-1.55256 0.67856 1.52851 180 67 46 0.46136 -0.262101 -0.847614
-1.5616 0.633333 1.52663 109 45 56 -0.001255 0.347682 -0.937612
-1.54954 0.579061 1.52924 160 72 57 -0.073848 -0.949658 -0.304461
-1.55256 0.681575 1.52746 180 67 46 0.444336 -0.19043 -0.875387
-1.56462 0.639363 1.52657 109 45 56 0.401497 0.09181 -0.911247
-1.54954 0.681575 1.52894 180 67 46 0.392903 -0.177022 -0.902381
-1.54653 0.579061 1.52803 160 72 57 -0.059596 -0.928371 -0.366846
-1.56462 0.651424 1.52685 152 44 32 0.176201 0.036174 -0.983689
-1.54351 0.579061 1.52755 144 101 90 0.045911 -0.927407 -0.371225
-1.55859 0.636348 1.52797 97 43 58 -0.022321 0.408351 -0.912552
-1.54653 0.68459 1.52953 177 68 48 0.348672 -0.189279 -0.917933
-1.56462 0.654439 1.52707 152 44 32 0.218774 0.017738 -0.975614
-1.5405 0.579061 1.52868 144 101 90 0.08624 -0.938023 -0.335672
-1.5616 0.639363 1.52799 109 51 62 0.318211 0.044728 -0.946964
-1.54653 0.687605 1.52884 177 68 48 0.313167 -0.096461 -0.944787
-1.56462 0.657454 1.52689 153 45 33 0.288794 -0.095393 -0.952627
-1.54351 0.687605 1.52954 177 68 48 0.222733 -0.11073 -0.96857
-1.56462 0.582076 1.52681 157 69 54 0.223945 -0.700023 -0.678098
-1.5616 0.651424 1.52733 152 48 35 0.291258 0.001219 -0.956644
-1.54954 0.633333 1.52742 101 45 59 0.344446 0.625227 -0.70032
-1.5616 0.654439 1.52751 152 48 35 0.249561 0.040569 -0.967509
-1.5616 0.582076 1.52691 150 86 73 0.045572 -0.857575 -0.512336
-1.55859 0.651424 1.52848 151 48 35 0.371921 -0.076533 -0.925104
-1.55557 0.636348 1.52758 101 47 61 0.17304 0.486583 -0.856326
-1.55859 0.654439 1.52843 151 48 35 0.333406 0.003746 -0.942776
-1.55256 0.636348 1.529 97 42 57 0.251723 0.660178 -0.707673
-1.5616 0.657454 1.52768 152 46 34 0.281648 0.028537 -0.959093
-1.55557 0.639363 1.52916 101 47 61 0.082072 0.372688 -0.92432
-1.55859 0.657454 1.5285 151 48 35 0.312177 0.102288 -0.944501
-1.5616 0.660469 1.52783 153 46 33 0.441013 -0.036193 -0.896771
-1.56462 0.642378 1.527 143 48 45 0.325212 0.016323 -0.9455
-1.55859 0.660469 1.52904 153 52 39 0.339001 0.123892 -0.932593
-1.5616 0.663484 1.52739 158 51 37 0.572425 -0.17067 -0.801999
-1.56462 0.645393 1.52681 147 50 44 0.272532 -0.051492 -0.960768
-1.55859 0.663484 1.52946 152 46 34 0.488406 -0.031291 -0.872056
-1.55859 0.666499 1.52891 162 54 40 0.456958 -0.269251 -0.847758
-1.55557 0.666499 1.52937 154 49 36 0.189409 -0.119165 -0.97464
-1.5616 0.642378 1.5279 123 51 57 0.29392 -0.041628 -0.954923
-1.55859 0.642378 1.52874 109 49 59 0.286245 0.023544 -0.957867
-1.5616 0.645393 1.52761 144 51 45 0.336764 -0.05331 -0.940079
-1.55859 0.645393 1.5289 138 54 52 0.358205 0.021826 -0.933388
-1.56462 0.648409 1.52679 149 45 34 0.211026 -0.017684 -0.97732
-1.5616 0.648409 1.5273 153 52 39 0.317587 -0.031632 -0.947701
-1.55859 0.648409 1.52908 153 52 41 0.445303 -0.036324 -0.894643
-1.51829 0.585091 1.53255 106 66 69 0.860773 -0.508944 -0.006714
-1.56462 0.562592 1.53255 168 63 46 0.557931 -0.240889 -0.794157
-1.56398 0.563985 1.53255 168 63 46 0.557887 -0.262443 -0.787328
-1.51728 0.588106 1.53255 106 66 69 0.911212 -0.409578 -0.044026
-1.56252 0.567 1.53255 168 63 46 0.545903 -0.275311 -0.791324
-1.51637 0.589353 1.53255 107 66 69 0.884212 -0.442827 -0.148571
-1.54653 0.66834 1.53255 154 46 33 0.319176 0.108173 -0.941502
-1.5616 0.568731 1.53255 173 63 44 0.493082 -0.247309 -0.834092
-1.54688 0.669515 1.53255 154 46 33 0.398444 0.071585 -0.914395
-1.51531 0.591121 1.53255 102 61 66 0.950274 -0.279335 -0.137663
-1.54653 0.672068 1.53255 170 62 44 0.1812 -0.237573 -0.954319
-1.51501 0.594136 1.53255 99 54 60 0.97879 -0.149726 -0.139827
-1.51462 0.597151 1.53255 96 49 57 0.9929 -0.059868 -0.102792
-1.54645 0.651424 1.53255 172 63 45 0.57712 -0.069824 -0.813669
-1.54623 0.654439 1.53255 172 63 45 0.462726 -0.088072 -0.882116
-1.54541 0.657454 1.53255 172 63 45 0.39122 -0.123909 -0.911918
-1.54432 0.660469 1.53255 172 63 45 0.346128 -0.056164 -0.936505
-1.54454 0.663484 1.53255 172 63 45 0.411842 0.041318 -0.910318
-1.54653 0.647947 1.53255 149 46 34 0.541393 -0.257435 -0.800388
-1.54537 0.666499 1.53255 152 45 32 0.362954 0.116419 -0.924506
-1.54421 0.67253 1.53255 178 63 43 0.177007 -0.230242 -0.9569
-1.54351 0.673065 1.53255 177 62 41 0.332285 -0.175256 -0.926753
-1.54234 0.675545 1.53255 177 62 41 0.346832 -0.092399 -0.933365
-1.54235 0.67856 1.53255 177 68 48 0.410842 -0.146425 -0.899872
-1.5405 0.681321 1.53255 177 68 48 0.346268 -0.263753 -0.900296
-1.53997 0.681575 1.53255 177 68 48 0.228667 -0.329338 -0.916105
-1.53748 0.68285 1.53255 177 65 44 0.462026 -0.350886 -0.8145
-1.54774 0.645393 1.53255 104 42 50 0.469897 -0.06201 -0.88054
-1.56088 0.570015 1.53255 173 63 44 0.438429 -0.250314 -0.863205
-1.5591 0.57303 1.53255 173 63 44 0.402322 -0.164651 -0.900571
-1.55859 0.575706 1.53255 173 58 39 0.296592 -0.076414 -0.951942
-1.55846 0.576045 1.53255 158 74 60 0.184599 -0.408443 -0.893923
-1.55557 0.577261 1.53255 158 74 60 0.094789 -0.62561 -0.774356
-1.55256 0.577725 1.53255 158 74 60 0.018111 -0.773209 -0.633892
-1.54619 0.648409 1.53255 149 46 34 0.692944 -0.015337 -0.720829
-1.54954 0.577399 1.53255 160 72 57 0.097229 -0.880695 -0.463598
-1.54653 0.578441 1.53255 160 72 57 0.155369 -0.973899 -0.165474
-1.54351 0.578577 1.53255 144 101 90 0.024688 -0.979274 -0.201028
-1.5405 0.578482 1.53255 144 101 90 0.008305 -0.971693 -0.236101
-1.53748 0.57856 1.53255 136 104 95 0.058873 -0.938049 -0.341465
-1.53446 0.578855 1.53255 139 104 95 0.136607 -0.942723 -0.304322
-1.53342 0.579061 1.53255 153 73 60 0.156464 -0.961134 -0.227464
-1.53145 0.579517 1.53255 112 63 69 0.14853 -0.980792 -0.126435
-1.52843 0.579953 1.53255 112 63 69 0.233866 -0.970972 -0.050202
-1.52542 0.580836 1.53255 114 69 74 0.318455 -0.947931 0.003717
-1.5224 0.582001 1.53255 113 66 71 0.36802 -0.929668 -0.01667
-1.52228 0.582076 1.53255 109 65 70 0.521865 -0.852333 -0.034424
-1.51939 0.5838 1.53255 110 67 72 0.603491 -0.79672 -0.032205
-1.56462 0.563985 1.53209 168 63 46 0.519974 -0.256107 -0.814884
-1.55256 0.663484 1.53052 152 46 33 0.176591 -0.038593 -0.983527
-1.56462 0.567 1.53117 168 63 46 0.519748 -0.211862 -0.827633
-1.54954 0.663484 1.53113 152 46 33 0.210271 0.123614 -0.969797
-1.55256 0.666499 1.53002 152 46 33 0.35641 -0.059183 -0.932453
-1.54954 0.666499 1.53137 152 46 33 0.322186 0.00622 -0.946656
-1.54653 0.663484 1.53158 146 41 29 0.287217 0.041389 -0.956971
-1.54653 0.666499 1.53207 146 41 29 0.23303 0.15667 -0.959767
-1.56462 0.570015 1.53053 173 63 44 0.504805 -0.113617 -0.855724
-1.56462 0.57303 1.53047 173 63 44 0.43336 0.041592 -0.900261
-1.5616 0.570015 1.53217 173 63 44 0.418748 -0.147205 -0.896092
-1.55256 0.669515 1.53012 153 47 34 0.397934 -0.019571 -0.917205
-1.5616 0.57303 1.53149 173 63 44 0.288817 -0.059799 -0.955515
-1.54954 0.669515 1.53115 153 47 34 0.385701 0.051692 -0.921175
-1.55256 0.639363 1.53002 101 47 61 0.205274 0.32136 -0.924441
-1.56462 0.576045 1.53138 177 63 43 0.327985 -0.069256 -0.942141
-1.55256 0.67253 1.52961 176 64 44 0.525095 -0.130177 -0.841029
-1.56462 0.579061 1.53019 171 62 45 0.227308 -0.40856 -0.883974
-1.54954 0.67253 1.53167 169 60 44 0.314104 -0.170197 -0.934009
-1.5616 0.576045 1.53129 168 63 46 0.221078 -0.13575 -0.965762
-1.54653 0.67253 1.53191 170 62 44 0.274698 -0.479558 -0.833406
