ply
format ascii 1.0
element vertex 740
property float x
property float y
property float z
property uchar red
property uchar green
property uchar blue
property float nx
property float ny
property float nz
end_header
-1.441 0.049249 1.58682 72 61 76 -0.518615 0.773883 -0.363515
-1.43798 0.048398 1.58484 47 80 103 -0.18062 0.506034 -0.84339
-1.42592 -0.017935 1.586 73 97 110 0.223454 -0.701615 -0.676613
-1.43497 0.048398 1.58428 47 80 103 0.014544 0.445579 -0.895124
-1.46813 0.036338 1.58496 71 65 82 0.116578 0.194297 -0.973991
-1.41989 -0.01492 1.58646 73 101 116 -0.142083 -0.785194 -0.60273
-1.43497 0.051413 1.58589 47 80 103 0.00683 0.566921 -0.823744
-1.43195 0.048398 1.58493 46 81 104 0.255384 0.50922 -0.821872
-1.41688 -0.01492 1.58545 69 99 114 -0.139996 -0.715035 -0.684928
-1.42894 0.048398 1.586 47 77 100 0.177261 0.571173 -0.801461
-1.41386 -0.01492 1.58484 69 99 114 0.047085 -0.69771 -0.714832
-1.45004 -0.017935 1.58458 81 102 118 -0.524116 -0.681518 -0.51072
-1.42592 0.048398 1.58609 47 77 100 -0.069791 0.56545 -0.821825
-1.45909 -0.011904 1.58549 81 102 118 -0.464028 -0.787392 -0.405822
-1.41085 -0.01492 1.58567 73 99 114 0.371988 -0.578465 -0.72595
-1.46512 0.036338 1.58559 71 65 82 0.211036 0.260691 -0.942074
-1.47115 -0.008889 1.58603 83 98 112 -0.272681 -0.506408 -0.818044
-1.46813 0.039353 1.58538 71 65 82 0.120277 0.085245 -0.989074
-1.46512 0.039353 1.58582 71 65 82 0.243312 0.025421 -0.969615
-1.4621 0.036338 1.5864 51 68 90 0.178592 0.52377 -0.832929
-1.38069 0.039353 1.58572 126 128 126 0.8718 -0.216087 -0.439626
-1.38069 0.042368 1.58458 72 75 76 0.788198 -0.365892 -0.49484
-1.4621 0.042368 1.58678 60 66 85 0.314746 0.001234 -0.949175
-1.46813 -0.008889 1.58583 75 100 118 -0.078351 -0.542762 -0.836224
-1.37768 0.048398 1.58475 42 73 92 0.671827 -0.159237 -0.723389
-1.4229 0.048398 1.58557 39 73 99 -0.235835 0.588807 -0.773103
-1.41989 0.048398 1.58471 39 73 99 -0.256606 0.596648 -0.760372
-1.41989 0.051413 1.58581 39 73 99 -0.26157 0.328789 -0.907457
-1.47115 -0.005874 1.58402 77 99 116 -0.214568 -0.515875 -0.829357
-1.47718 -0.002859 1.58563 92 95 106 -0.147878 -0.384483 -0.911211
-1.41989 0.054428 1.5862 39 73 99 -0.154417 0.156928 -0.975463
-1.46813 -0.005874 1.58394 75 99 117 -0.040111 -0.524216 -0.85064
-1.47416 -0.002859 1.58431 92 95 106 -0.288321 -0.404259 -0.868013
-1.40783 -0.011904 1.58547 68 95 110 0.509847 -0.550231 -0.661287
-1.46512 -0.008889 1.5852 78 103 124 -0.185376 -0.617411 -0.764486
-1.47718 0.000156 1.58409 92 95 106 0.001268 -0.368984 -0.929435
-1.41688 0.054428 1.58634 39 72 98 -0.164106 0.310285 -0.936372
-1.4621 -0.008889 1.58442 78 103 124 -0.240885 -0.728951 -0.640784
-1.41688 0.057443 1.58659 39 72 98 -0.073569 0.182114 -0.980521
-1.41386 0.054428 1.58568 37 72 98 -0.166457 0.424104 -0.890184
-1.45306 0.036338 1.58602 62 65 82 -0.522017 0.606486 -0.599728
-1.47718 0.024277 1.58428 56 73 91 -0.03066 0.144216 -0.989071
-1.41386 0.057443 1.5867 37 72 98 -0.034351 0.324426 -0.945287
-1.38069 0.051413 1.5842 34 72 97 0.23835 0.577961 -0.780481
-1.37768 0.051413 1.58524 34 72 97 0.349019 0.339875 -0.87331
-1.47718 0.027292 1.58451 71 66 80 0.059086 0.00311 -0.998248
-1.44703 -0.02095 1.58653 74 101 118 -0.298191 -0.803064 -0.515917
-1.40783 0.054428 1.58451 41 75 101 -0.171152 0.513455 -0.840875
-1.38069 0.054428 1.58647 34 71 97 0.165013 0.521798 -0.836958
-1.44401 0.045383 1.58421 44 73 95 -0.634012 0.750683 -0.185752
-1.40783 0.057443 1.58625 41 75 101 -0.11132 0.44387 -0.88915
-1.47416 0.027292 1.5842 50 65 84 -0.104365 0.025267 -0.994218
-1.40481 0.057443 1.58583 41 75 101 -0.134802 0.570314 -0.81029
-1.44401 -0.02095 1.58467 74 101 118 -0.160562 -0.808814 -0.56572
-1.4018 0.057443 1.58546 41 75 101 -0.058178 0.583203 -0.810241
-1.37768 0.054428 1.58651 34 72 97 0.071862 0.402697 -0.912508
-1.441 -0.02095 1.58493 69 97 114 0.038268 -0.673238 -0.738435
-1.39878 0.057443 1.5854 34 70 96 0.020842 0.615537 -0.787832
-1.43798 -0.02095 1.58539 73 100 117 0.140642 -0.561086 -0.815722
-1.37768 0.018247 1.58623 64 96 112 0.132722 -0.633787 -0.762036
-1.43497 -0.02095 1.58599 68 94 109 0.186582 -0.55368 -0.811558
-1.37768 0.021262 1.58382 63 99 117 0.361048 -0.579964 -0.730264
-1.43195 -0.02095 1.58681 68 94 109 0.216608 -0.554577 -0.803446
-1.37466 0.021262 1.58536 63 99 117 0.577324 -0.570552 -0.584096
-1.43497 -0.017935 1.58387 62 90 107 0.213626 -0.564034 -0.79764
-1.47416 0.030307 1.58422 57 68 88 -0.033281 -0.001009 -0.999445
-1.37466 0.027292 1.58414 46 74 90 0.636362 0.468457 -0.612855
-1.43195 -0.017935 1.58466 77 100 112 0.218552 -0.602954 -0.767256
-1.42894 -0.017935 1.58539 81 104 117 0.146537 -0.70549 -0.693405
-1.38672 0.015232 1.58664 81 94 105 0.50455 -0.494559 -0.707702
-1.38672 0.018247 1.58456 81 94 105 0.43247 -0.498245 -0.751479
-1.38371 0.018247 1.58585 78 105 121 0.244052 -0.551837 -0.797443
-1.38069 0.018247 1.58657 76 101 115 0.052897 -0.661924 -0.747702
-1.47115 0.033322 1.58418 64 69 87 0.003444 0.191698 -0.981448
-1.46813 0.033322 1.58411 69 64 79 0.034863 0.349919 -0.936131
-1.46512 0.033322 1.58403 44 70 94 0.091984 0.493883 -0.864649
-1.4621 0.033322 1.58433 44 70 94 0.118752 0.573236 -0.81074
-1.45909 0.033322 1.58476 44 74 98 0.058708 0.640066 -0.766074
-1.45607 0.033322 1.58468 44 74 98 -0.176214 0.672678 -0.718647
-1.441 0.048398 1.58572 41 72 96 -0.333185 0.64524 -0.687498
-1.42894 0.045383 1.58386 38 72 97 0.012378 0.590006 -0.807304
-1.42592 0.045383 1.58381 38 72 97 -0.012433 0.603705 -0.797111
-1.41386 0.048398 1.58258 47 78 97 -0.25587 0.516392 -0.817233
-1.44703 -0.023618 1.58984 76 99 116 -0.506597 -0.587383 -0.631142
-1.45003 -0.02095 1.58984 76 99 116 -0.510373 -0.719842 -0.470474
-1.42592 0.057883 1.58984 40 74 99 -0.562264 0.452147 -0.692403
-1.44642 -0.023965 1.58984 76 100 116 -0.261232 -0.631706 -0.729866
-1.45004 -0.020944 1.58984 76 99 116 -0.221684 -0.824052 -0.521339
-1.42391 0.060459 1.58984 40 74 99 -0.589428 0.475237 -0.653241
-1.42957 -0.023965 1.58984 90 111 119 0.309618 -0.585548 -0.74918
-1.4229 0.061431 1.58984 50 78 100 -0.438586 0.719943 -0.537889
-1.41989 0.062948 1.58984 50 78 100 -0.199942 0.689722 -0.695922
-1.42894 -0.023558 1.58984 90 111 119 0.325771 -0.550441 -0.768692
-1.45607 0.042412 1.58984 53 65 86 0.375135 0.159963 -0.913064
-1.41688 0.063173 1.58984 46 75 99 0.038154 0.659924 -0.750363
-1.45726 0.045383 1.58984 53 65 86 0.455125 -0.011942 -0.890347
-1.41386 0.062724 1.58984 50 78 100 0.026679 0.678214 -0.73438
-1.45641 0.048398 1.58984 70 62 75 0.473721 -0.153048 -0.867274
-1.44862 0.042368 1.58984 40 71 95 -0.560302 0.67738 -0.476675
-1.41085 0.06294 1.58984 43 76 100 0.01812 0.656519 -0.754091
-1.44703 0.043545 1.58984 40 71 95 -0.641827 0.693823 -0.326601
-1.44496 0.045383 1.58984 40 71 95 -0.642635 0.688189 -0.336773
-1.44401 0.046365 1.58984 40 71 95 -0.719024 0.59127 -0.365245
-1.42592 -0.021777 1.58984 88 109 118 0.311562 -0.554421 -0.771716
-1.44256 0.048398 1.58984 40 71 95 -0.695028 0.465019 -0.548355
-1.42429 -0.02095 1.58984 76 97 109 0.323165 -0.567548 -0.757267
-1.40783 0.062473 1.58984 43 80 105 0.049881 0.648454 -0.759618
-1.38672 0.011746 1.58984 92 107 109 0.216184 -0.623668 -0.751201
-1.4229 -0.020308 1.58984 77 100 114 0.009309 -0.466767 -0.884331
-1.40481 0.062358 1.58984 39 74 99 -0.061602 0.628909 -0.775034
-1.41989 -0.020853 1.58984 75 96 108 -0.02324 -0.523574 -0.851663
-1.38574 0.012217 1.58984 92 107 109 0.168583 -0.520669 -0.836949
-1.38069 0.011247 1.58984 81 103 112 -0.0444 -0.300652 -0.9527
-1.38188 0.012217 1.58984 81 103 112 -0.144672 -0.261472 -0.954307
-1.41688 -0.020369 1.58984 71 92 104 0.176088 -0.659949 -0.730384
-1.37893 0.012217 1.58984 82 104 113 0.256197 -0.362822 -0.895948
-1.4018 0.062769 1.58984 39 74 99 -0.146242 0.652811 -0.74327
-1.41386 -0.019125 1.58984 71 92 104 0.261376 -0.742942 -0.616214
-1.38371 0.012814 1.58984 79 105 117 0.088673 -0.482774 -0.871244
-1.41085 -0.018275 1.58984 69 93 106 0.286958 -0.816969 -0.500217
-1.40809 -0.017935 1.58984 72 94 105 0.194212 -0.793668 -0.576518
-1.37165 0.049219 1.58984 37 71 92 0.772582 0.364426 -0.519914
-1.37269 0.051413 1.58984 37 71 92 0.82437 0.172682 -0.539069
-1.40783 -0.017885 1.58984 72 95 107 0.400755 -0.565675 -0.720699
-1.37768 0.012978 1.58984 73 100 114 0.266728 -0.513179 -0.815784
-1.37333 0.054428 1.58984 37 71 92 0.783729 0.358874 -0.50693
-1.40481 -0.015612 1.58984 75 95 106 0.562264 -0.692403 -0.452147
-1.37136 0.048398 1.58984 35 70 95 0.858423 0.068618 -0.508332
-1.40454 -0.01492 1.58984 78 97 106 0.694134 -0.451104 -0.560967
-1.37466 0.055913 1.58984 41 82 107 0.521019 0.645793 -0.558114
-1.37675 0.057443 1.58984 41 82 107 0.452935 0.650154 -0.610041
-1.40377 -0.011904 1.58984 77 97 106 0.514869 -0.164699 -0.841299
-1.37768 0.057852 1.58984 44 83 108 0.17295 0.705574 -0.687207
-1.40263 -0.008889 1.58984 85 104 112 0.68965 -0.165942 -0.704874
-1.40209 -0.005874 1.58984 61 83 95 0.670862 0.127001 -0.730627
-1.38672 0.060292 1.58984 32 77 106 0.143186 0.673729 -0.724974
-1.38706 0.060459 1.58984 32 77 106 0.29583 0.599655 -0.743572
-1.38371 0.059745 1.58984 32 77 106 0.189331 0.644958 -0.740394
-1.38069 0.058491 1.58984 46 89 115 0.222705 0.627623 -0.745984
-1.39985 0.063474 1.58984 35 73 100 -0.108535 0.444008 -0.889425
-1.39878 0.063823 1.58984 35 73 100 -0.048188 0.248354 -0.96747
-1.39577 0.064265 1.58984 35 73 100 0.00842 0.258627 -0.965941
-1.39275 0.062639 1.58984 49 90 115 0.177282 0.505031 -0.844698
-1.39439 0.063474 1.58984 49 90 115 0.223311 0.406693 -0.885851
-1.38974 0.061835 1.58984 40 84 112 0.206577 0.558523 -0.803355
-1.37505 0.015232 1.58984 72 99 114 0.465575 -0.472155 -0.748539
-1.37466 0.016153 1.58984 65 99 116 0.620803 -0.329042 -0.711573
-1.37385 0.018247 1.58984 69 99 114 0.634 -0.233249 -0.737319
-1.37279 0.021262 1.58984 59 93 110 0.725185 -0.399592 -0.560744
-1.37165 0.022552 1.58984 59 93 109 0.569695 -0.502474 -0.65036
-1.441 0.050318 1.58984 51 70 92 -0.556899 0.647753 -0.519885
-1.43949 0.051413 1.58984 51 70 92 -0.450265 0.792403 -0.411533
-1.36947 0.024277 1.58984 62 91 107 0.417867 -0.473149 -0.775575
-1.43798 0.052157 1.58984 51 70 92 -0.297487 0.852386 -0.430046
-1.43497 0.053223 1.58984 46 76 100 -0.073005 0.891212 -0.447672
-1.43195 0.052534 1.58984 46 76 100 0.047082 0.717644 -0.694817
-1.42894 0.052618 1.58984 47 77 100 -0.216455 0.541904 -0.812088
-1.42699 0.054428 1.58984 47 77 100 -0.466539 0.301144 -0.831657
-1.42613 0.057443 1.58984 42 77 100 -0.550538 0.20283 -0.809795
-1.36863 0.025329 1.58984 76 97 108 0.470248 -0.269814 -0.840278
-1.46512 -0.018241 1.58984 109 104 109 0.073526 -0.467513 -0.880923
-1.36742 0.027292 1.58984 76 97 108 0.499401 -0.098173 -0.860791
-1.46308 -0.017935 1.58984 109 104 109 0.040056 -0.347583 -0.936793
-1.36744 0.030307 1.58984 76 97 108 0.514162 0.334766 -0.789664
-1.37165 0.032398 1.58984 65 81 92 0.436656 0.549556 -0.712264
-1.3722 0.033322 1.58984 65 81 92 0.558887 0.244416 -0.792405
-1.4621 -0.01757 1.58984 80 102 119 0.106057 -0.387038 -0.915944
-1.45607 -0.018232 1.58984 81 103 119 -0.184846 -0.301591 -0.935348
-1.36863 0.030978 1.58984 57 88 106 0.305168 0.682995 -0.663619
-1.45663 -0.017935 1.58984 81 103 119 -0.214142 -0.340615 -0.915492
-1.37291 0.039353 1.58984 97 113 120 0.304873 -0.124904 -0.944167
-1.44401 -0.025027 1.58984 82 102 116 -0.129421 -0.504598 -0.853599
-1.45306 -0.020138 1.58984 78 98 115 -0.328941 -0.617373 -0.714597
-1.37165 0.041206 1.58984 99 115 121 0.312856 -0.192203 -0.93015
-1.441 -0.025625 1.58984 80 101 115 -0.101751 -0.709311 -0.697513
-1.45909 -0.016731 1.58984 81 102 118 -0.153223 -0.47718 -0.865345
-1.37052 0.042368 1.58984 47 73 89 0.417317 -0.0065 -0.908738
-1.43798 -0.026072 1.58984 80 101 115 -0.058768 -0.758248 -0.649312
-1.43497 -0.026098 1.58984 73 96 108 0.092219 -0.707015 -0.70116
-1.43195 -0.025183 1.58984 73 96 108 0.243623 -0.630276 -0.737156
-1.47416 -0.011904 1.58771 86 101 116 0.18663 -0.210455 -0.959624
-1.47115 -0.011904 1.58809 86 101 116 -0.029666 -0.359858 -0.932535
-1.47416 -0.008889 1.58703 86 101 116 -0.001174 -0.228974 -0.973432
-1.38974 0.057443 1.58717 32 77 106 0.05899 0.456831 -0.887596
-1.37768 0.033322 1.58748 59 78 89 0.23507 0.271667 -0.933241
-1.38069 0.036338 1.58732 58 76 87 0.315016 0.052717 -0.947621
-1.38672 0.057443 1.58716 32 77 106 0.151646 0.608087 -0.779252
-1.38371 0.057443 1.58774 32 77 106 0.192926 0.659036 -0.726946
-1.37768 0.036338 1.58824 58 76 87 0.340664 0.045335 -0.939092
-1.38974 0.060459 1.5887 32 77 106 0.163484 0.565445 -0.808421
-1.38069 0.057443 1.58874 51 92 117 0.182518 0.670256 -0.719336
-1.37768 0.042368 1.5878 65 69 68 0.450765 -0.108805 -0.885987
-1.37768 0.057443 1.58926 51 92 117 0.162641 0.694645 -0.700725
-1.37768 0.045383 1.58737 82 98 103 0.378553 -0.220701 -0.898882
-1.4018 0.060459 1.58757 35 73 100 -0.126706 0.642472 -0.755762
-1.45909 0.036338 1.58722 45 69 94 0.02556 0.472179 -0.881132
-1.42592 0.051413 1.58794 39 73 99 -0.298254 0.437335 -0.8484
-1.4229 0.051413 1.58695 39 73 99 -0.328629 0.275577 -0.903361
-1.4621 0.039353 1.5876 45 69 94 0.461929 0.076295 -0.883629
-1.39878 0.060459 1.58745 35 73 100 0.04066 0.590267 -0.806184
-1.45909 0.039353 1.58889 45 69 94 0.180896 0.29689 -0.937621
-1.42592 0.054428 1.58906 39 73 99 -0.531366 0.152453 -0.833312
-1.45607 0.036338 1.58729 46 69 93 -0.075065 0.419001 -0.904878
-1.4229 0.054428 1.58753 39 73 99 -0.426605 0.116859 -0.896857
-1.45607 0.039353 1.58856 46 69 93 -0.039011 0.445258 -0.894552
-1.45909 0.042368 1.58893 47 69 93 0.432915 0.011843 -0.901357
-1.39878 0.063474 1.58969 35 73 100 0.03154 0.51424 -0.857066
-1.46512 -0.017935 1.58967 109 104 109 0.030294 -0.238716 -0.970617
-1.42592 0.057443 1.58965 42 75 99 -0.619642 0.172038 -0.765798
-1.39577 0.060459 1.58807 32 72 100 0.114234 0.516222 -0.848802
-1.4229 0.057443 1.58722 42 75 99 -0.427408 0.218916 -0.877154
-1.45607 0.042368 1.58981 46 69 93 0.093625 0.213466 -0.972454
-1.39577 0.063474 1.5896 32 72 100 0.030531 0.420798 -0.90664
-1.41989 0.057443 1.58692 38 73 99 -0.1087 0.236582 -0.965512
-1.37466 0.048398 1.58696 37 71 92 0.69589 -0.006945 -0.718114
-1.47115 -0.01492 1.58876 140 102 97 0.020521 -0.24504 -0.969296
-1.39275 0.060459 1.58852 49 90 115 0.10922 0.557751 -0.822791
-1.4229 0.060459 1.58878 40 74 99 -0.383772 0.543814 -0.746315
-1.37466 0.051413 1.58716 37 71 92 0.78116 0.082609 -0.618841
-1.41989 0.060459 1.58764 40 74 99 -0.137841 0.480268 -0.866223
-1.37165 0.048398 1.5896 37 71 92 0.563568 -0.134606 -0.815029
-1.37466 0.054428 1.58779 37 71 92 0.716413 0.307494 -0.626258
-1.45909 0.045383 1.58879 72 59 74 0.38486 -0.046289 -0.921813
-1.37768 0.015232 1.58815 72 99 114 0.250541 -0.543098 -0.80142
-1.37466 0.018247 1.58902 65 99 116 0.743864 -0.402311 -0.533678
-1.46813 -0.01492 1.58897 103 103 109 0.055235 -0.309573 -0.94927
-1.37165 0.024277 1.58835 59 93 109 0.670777 -0.323207 -0.667529
-1.46813 -0.011904 1.58747 94 102 112 0.014323 -0.402348 -0.915375
-1.46512 -0.01492 1.58898 86 102 115 -0.016039 -0.2924 -0.956161
-1.37165 0.027292 1.58749 76 97 108 0.541544 -0.020565 -0.840421
-1.4621 -0.01492 1.58897 80 102 119 -0.061501 -0.44144 -0.895181
-1.37165 0.030307 1.58856 76 97 108 0.446806 0.327657 -0.832469
-1.46512 -0.011904 1.58806 78 101 118 0.009255 -0.456163 -0.889848
-1.36863 0.027292 1.58933 76 97 108 0.420798 0.030531 -0.90664
-1.4621 -0.011904 1.58761 82 102 117 -0.165348 -0.412652 -0.895756
-1.36863 0.030307 1.58932 76 97 108 0.306513 0.104825 -0.946077
-1.45607 -0.017935 1.58972 81 103 119 -0.415676 -0.527399 -0.740988
-1.37466 0.033322 1.58801 96 111 119 0.368868 0.353434 -0.859663
-1.44401 -0.023965 1.58901 82 102 116 -0.206322 -0.736865 -0.643787
-1.45306 -0.017935 1.58785 78 98 115 -0.499661 -0.563591 -0.657803
-1.41688 0.060459 1.58759 39 73 98 0.046014 0.547984 -0.835222
-1.45909 -0.01492 1.58914 81 102 118 -0.124946 -0.56887 -0.812881
-1.41386 0.060459 1.58798 39 73 98 0.057436 0.536533 -0.841923
-1.45607 -0.01492 1.58784 81 102 118 -0.385838 -0.522591 -0.760281
-1.441 -0.023965 1.58784 80 101 115 -0.139846 -0.735317 -0.663138
-1.43798 -0.023965 1.58756 80 101 115 -0.012551 -0.712607 -0.701451
-1.40783 0.060459 1.58826 41 75 101 0.017997 0.604985 -0.796033
-1.40481 0.060459 1.5883 41 75 101 -0.088679 0.629475 -0.771943
-1.37466 0.036338 1.58922 96 111 119 0.303236 0.21015 -0.929454
-1.43497 -0.023965 1.58797 73 96 108 0.17196 -0.616317 -0.768494
-1.43195 -0.023965 1.58891 73 96 108 0.268944 -0.558334 -0.784813
-1.37466 0.039353 1.58934 97 113 120 0.354003 -0.048333 -0.933994
-1.41085 0.060459 1.58805 43 76 100 0.023206 0.525555 -0.850443
-1.37466 0.042368 1.58903 97 113 120 0.311883 -0.130964 -0.941051
-1.37165 0.042368 1.58972 99 115 121 0.193211 -0.041487 -0.98028
-1.37466 0.045383 1.58834 102 116 119 0.419657 -0.265126 -0.868099
-1.37165 0.045383 1.58967 44 70 87 0.340657 -0.067079 -0.937792
-1.43798 0.051413 1.58782 51 70 92 -0.381613 0.86591 -0.323375
-1.43195 0.051413 1.58796 46 76 100 0.250945 0.835971 -0.488035
-1.42894 0.051413 1.58866 47 77 100 -0.006943 0.726264 -0.687381
-1.38672 0.012217 1.58937 92 107 109 0.344186 -0.663904 -0.663904
-1.38069 0.012217 1.58961 81 103 112 0.001189 -0.248404 -0.968656
-1.38371 0.015232 1.58812 79 105 117 0.253389 -0.590193 -0.766464
-1.38069 0.015232 1.58882 73 101 116 0.012111 -0.496537 -0.867931
-1.42894 -0.02095 1.58799 90 111 119 0.309091 -0.562128 -0.767121
-1.42592 -0.02095 1.58922 88 109 118 0.27579 -0.623318 -0.731721
-1.4229 -0.017935 1.58858 77 100 114 0.170286 -0.496051 -0.851431
-1.41989 -0.017935 1.58821 75 96 108 -0.083118 -0.497302 -0.863587
-1.41688 -0.017935 1.58812 71 92 104 0.009639 -0.59622 -0.802763
-1.41386 -0.017935 1.5883 71 92 104 0.15596 -0.722261 -0.673807
-1.4229 -0.01492 1.5871 72 98 111 0.001325 -0.478202 -0.878249
-1.41085 -0.017935 1.58932 69 93 106 0.216268 -0.74838 -0.627021
-1.40783 -0.01492 1.58763 72 95 107 0.429433 -0.505118 -0.748628
-1.40481 -0.01492 1.58947 75 95 106 0.614207 -0.314358 -0.723829
-1.40481 -0.011904 1.58904 74 96 106 0.739217 -0.258014 -0.622082
-1.40481 -0.008889 1.58713 72 92 102 0.76649 -0.192006 -0.612884
-1.40481 -0.005874 1.58714 72 92 102 0.727953 0.073808 -0.681642
-1.42592 -0.025637 1.59285 81 98 107 0.25131 -0.690706 -0.678062
-1.4229 -0.024765 1.59285 81 98 107 0.24485 -0.684002 -0.687161
-1.39838 -0.005874 1.59285 56 81 94 0.415631 -0.027709 -0.909111
-1.44703 0.047331 1.59285 40 71 95 -0.274508 0.379511 -0.883525
-1.39853 -0.002859 1.59285 56 81 94 0.370367 0.043188 -0.927881
-1.44911 0.048398 1.59285 40 71 95 0.271418 -0.075182 -0.959521
-1.44614 0.048398 1.59285 40 71 95 -0.465244 0.076383 -0.881881
-1.44703 0.051342 1.59285 47 66 86 0.010158 -0.156882 -0.987565
-1.42132 -0.023965 1.59285 81 98 107 0.175798 -0.668034 -0.723067
-1.38974 0.007416 1.59285 82 81 82 0.061548 -0.622638 -0.780086
-1.44401 0.05347 1.59285 50 67 88 -0.149552 0.405927 -0.901586
-1.44508 0.054428 1.59285 50 67 88 0.394002 -0.209451 -0.894926
-1.38672 0.006005 1.59285 85 104 110 -0.23097 -0.22277 -0.947115
-1.441 0.054157 1.59285 49 71 94 -0.045699 0.522081 -0.851671
-1.43798 0.054039 1.59285 51 70 92 -0.192679 0.741427 -0.642776
-1.38672 0.064767 1.59285 41 69 91 0.30677 0.526119 -0.793152
-1.3699 0.048398 1.59285 35 70 95 0.788657 0.385458 -0.479
-1.38902 0.066489 1.59285 41 69 91 0.378468 0.369124 -0.848828
-1.44401 0.057309 1.59285 85 64 76 0.511375 -0.210923 -0.833071
-1.38684 0.006186 1.59285 85 104 110 -0.207767 -0.455891 -0.865446
-1.37147 0.051413 1.59285 35 70 95 0.881197 0.252839 -0.399456
-1.429 0.060459 1.59285 44 67 90 -0.473255 0.546836 -0.690652
-1.37163 0.054428 1.59285 35 70 95 0.929058 0.095738 -0.35733
-1.42894 0.06051 1.59285 44 67 90 -0.281778 0.743447 -0.606538
-1.38069 0.063071 1.59285 41 70 92 0.223762 0.550919 -0.804002
-1.42592 0.06163 1.59285 44 67 90 -0.386077 0.727797 -0.566794
-1.38357 0.063474 1.59285 41 70 92 0.078543 0.552657 -0.829699
-1.38371 0.003398 1.59285 85 104 110 0.043881 -0.279586 -0.959117
-1.37768 0.06126 1.59285 41 70 92 0.334766 0.514162 -0.789664
-1.38069 0.005982 1.59285 85 104 110 0.31833 -0.370116 -0.872743
-1.4229 0.06343 1.59285 50 78 100 -0.436914 0.743578 -0.50616
-1.38047 0.006186 1.59285 85 104 110 0.412627 -0.484388 -0.771432
-1.42281 0.063474 1.59285 50 78 100 -0.366632 0.805309 -0.465895
-1.43576 0.054428 1.59285 46 76 100 -0.189436 0.651474 -0.73464
-1.37768 0.008148 1.59285 72 99 112 0.400103 -0.554875 -0.729405
-1.41989 0.064568 1.59285 50 78 100 -0.214001 0.901132 -0.377049
-1.37652 0.009201 1.59285 72 99 112 0.511881 -0.495207 -0.70196
-1.37165 0.05451 1.59285 44 83 108 0.839145 0.368596 -0.399966
-1.41688 0.065071 1.59285 50 78 100 -0.046689 0.911102 -0.409529
-1.37466 0.011131 1.59285 75 100 113 0.512228 -0.49888 -0.6991
-1.43497 0.05476 1.59285 43 76 100 -0.31261 0.408087 -0.857753
-1.41386 0.064878 1.59285 55 81 101 0.017207 0.89875 -0.438124
-1.3737 0.012217 1.59285 70 98 112 0.581417 -0.419084 -0.697369
-1.43195 0.057349 1.59285 43 76 100 -0.304987 0.403073 -0.862853
-1.41085 0.064663 1.59285 43 78 102 -0.065894 0.856617 -0.511727
-1.43182 0.057443 1.59285 42 77 100 -0.307094 0.289462 -0.90659
-1.40783 0.065061 1.59285 43 78 102 -0.159035 0.740648 -0.6528
-1.3717 0.015232 1.59285 70 99 113 0.608534 -0.38425 -0.69429
-1.40549 0.066489 1.59285 39 74 99 -0.392412 0.550033 -0.737209
-1.37165 0.015363 1.59285 69 99 114 0.634754 -0.300504 -0.711888
-1.37679 0.060459 1.59285 58 96 118 0.552956 0.55972 -0.617214
-1.3703 0.018247 1.59285 65 94 107 0.56139 -0.356361 -0.746893
-1.36863 0.019855 1.59285 62 91 107 0.376118 -0.495572 -0.782907
-1.36659 0.021262 1.59285 62 91 107 0.388401 -0.472206 -0.791307
-1.36562 0.022155 1.59285 62 91 107 0.635058 -0.409554 -0.654955
-1.3644 0.024277 1.59285 65 96 112 0.827137 -0.162447 -0.538011
-1.36562 0.032227 1.59285 57 88 106 0.577112 0.597421 -0.556803
-1.36853 0.033322 1.59285 57 88 106 0.297288 0.545292 -0.783758
-1.36863 0.03337 1.59285 57 88 106 0.626131 0.129391 -0.768907
-1.36911 0.036338 1.59285 57 88 106 0.63054 0.001374 -0.776155
-1.36427 0.027292 1.59285 59 90 105 0.849317 0.017723 -0.527585
-1.36469 0.030307 1.59285 56 85 102 0.895433 0.268778 -0.354906
-1.36863 0.037954 1.59285 43 70 87 0.734952 -0.230358 -0.637794
-1.36794 0.039353 1.59285 47 73 88 0.807292 -0.243272 -0.537678
-1.36749 0.042368 1.59285 47 73 88 0.833809 -0.017799 -0.551766
-1.41989 -0.023268 1.59285 76 95 106 0.248738 -0.786888 -0.564745
-1.41688 -0.022359 1.59285 71 92 104 0.203246 -0.844601 -0.495318
-1.41386 -0.02182 1.59285 71 92 104 0.2613 -0.833376 -0.487038
-1.41179 -0.02095 1.59285 72 94 105 0.298537 -0.758315 -0.579512
-1.41085 -0.02046 1.59285 73 94 105 0.447069 -0.744015 -0.49656
-1.40783 -0.018569 1.59285 72 94 104 0.440047 -0.818138 -0.370148
-1.40689 -0.017935 1.59285 72 95 107 0.522327 -0.80006 -0.295091
-1.40481 -0.016586 1.59285 77 97 106 0.528118 -0.741998 -0.412952
-1.40277 -0.01492 1.59285 77 97 106 0.614416 -0.62115 -0.486483
-1.4018 -0.014009 1.59285 83 100 106 0.566951 -0.563566 -0.600799
-1.39977 -0.011904 1.59285 53 75 87 0.575385 -0.42615 -0.698089
-1.39878 -0.010377 1.59285 98 113 113 0.557406 -0.319665 -0.766233
-1.39838 -0.008889 1.59285 69 91 99 0.520062 -0.045765 -0.852902
-1.45909 -0.024641 1.59285 106 98 100 -0.155837 -0.636965 -0.754977
-1.45607 -0.025755 1.59285 106 98 100 -0.188167 -0.51633 -0.835462
-1.45004 -0.02907 1.59285 89 105 113 -0.201292 -0.253326 -0.946207
-1.45215 -0.02698 1.59285 89 105 113 -0.084357 -0.235445 -0.96822
-1.45306 -0.026718 1.59285 89 105 113 -0.130605 -0.403051 -0.90581
-1.44703 -0.03001 1.59285 96 111 119 -0.070757 -0.735007 -0.674358
-1.44993 -0.029995 1.59285 96 111 119 -0.077129 -0.251618 -0.964748
-1.44697 -0.029995 1.59285 96 111 119 0.232828 -0.601601 -0.764112
-1.44401 -0.028704 1.59285 91 103 111 0.153042 -0.680357 -0.716723
-1.441 -0.028181 1.59285 80 101 115 0.06133 -0.797294 -0.600467
-1.43798 -0.028068 1.59285 81 100 112 -0.0096 -0.810533 -0.585614
-1.43497 -0.028181 1.59285 73 96 108 -0.015104 -0.819719 -0.572567
-1.43195 -0.028103 1.59285 72 95 107 0.162986 -0.817922 -0.551761
-1.42894 -0.027081 1.59285 78 97 107 0.272811 -0.786895 -0.553507
-1.42872 -0.02698 1.59285 78 97 107 0.300799 -0.696503 -0.651463
-1.42592 -0.023965 1.59139 81 98 107 0.274565 -0.588807 -0.760211
-1.4229 -0.023965 1.59231 81 98 107 0.241125 -0.552253 -0.798045
-1.45004 -0.023965 1.59203 76 99 116 -0.238696 -0.392885 -0.888068
-1.44703 -0.023965 1.59002 76 99 116 -0.450885 -0.258304 -0.85439
-1.45004 -0.02095 1.58984 76 99 116 -0.198034 -0.521539 -0.829927
-1.42894 -0.023965 1.59013 88 109 118 0.307916 -0.617444 -0.723844
-1.45607 0.045383 1.59069 50 69 90 0.494697 0.151198 -0.855812
-1.46512 -0.023965 1.59222 131 106 104 0.201336 -0.284647 -0.937251
-1.46512 -0.02095 1.59127 131 106 104 0.09112 -0.379439 -0.920719
-1.45607 0.048398 1.59002 77 62 75 0.49572 -0.230319 -0.837386
-1.4621 -0.023965 1.59262 100 104 111 -0.003881 -0.410093 -0.912036
-1.45306 0.045383 1.59265 47 66 86 0.301346 0.047046 -0.952354
-1.4621 -0.02095 1.59117 100 104 111 -0.001253 -0.344659 -0.938727
-1.4229 -0.02095 1.59017 81 99 109 0.073463 -0.61507 -0.785043
-1.38672 0.060459 1.59 32 77 106 0.160932 0.58808 -0.79263
-1.38371 0.060459 1.59036 32 77 106 0.151485 0.601441 -0.784424
-1.4621 -0.017935 1.58999 82 102 116 0.209581 -0.359901 -0.909147
-1.38069 0.060459 1.59108 51 92 117 0.223552 0.556567 -0.800161
-1.37768 0.060459 1.59234 57 96 119 0.284846 0.593562 -0.752693
-1.41989 -0.02095 1.58994 76 95 106 0.089032 -0.737068 -0.669929
-1.45909 -0.023965 1.59232 86 103 116 -0.119164 -0.480963 -0.868605
-1.45909 -0.02095 1.59081 86 103 116 -0.124374 -0.300905 -0.945509
-1.41688 -0.02095 1.59049 71 92 104 0.180631 -0.799938 -0.572252
-1.45607 -0.023965 1.59179 79 100 116 -0.089719 -0.423747 -0.901326
-1.41386 -0.02095 1.59177 71 92 104 0.296968 -0.711118 -0.637277
-1.45607 -0.02095 1.5907 79 100 116 -0.08903 -0.330873 -0.939466
-1.4018 0.063474 1.59022 35 73 100 -0.151179 0.268912 -0.951226
-1.45909 -0.017935 1.59076 78 105 124 -0.046146 -0.270638 -0.961575
-1.4018 0.066489 1.59057 35 73 99 -0.295062 0.27762 -0.914257
-1.39878 0.066489 1.59046 35 73 99 0.045585 0.250103 -0.967146
-1.45004 0.045383 1.59245 47 66 86 -0.059093 0.353243 -0.933664
-1.39577 0.066489 1.59043 41 77 100 0.189886 0.398615 -0.897246
-1.45306 0.048398 1.59168 47 66 86 0.340801 -0.310775 -0.887284
-1.39275 0.063474 1.59025 37 72 97 0.222917 0.435362 -0.87222
-1.45004 0.048398 1.59225 47 66 86 0.188566 -0.175562 -0.96624
-1.40783 -0.017935 1.59 72 94 104 0.562373 -0.803172 -0.196602
-1.37165 0.051413 1.59258 37 71 92 0.881838 0.296961 -0.366302
-1.45306 -0.023965 1.5917 78 98 115 -0.025263 -0.434796 -0.900174
-1.44703 0.045383 1.59163 40 71 95 -0.4303 0.525922 -0.733653
-1.45306 -0.02095 1.59038 78 98 115 -0.100984 -0.410854 -0.906091
-1.37165 0.054428 1.59281 37 71 92 0.894181 0.110895 -0.433755
-1.38974 0.063474 1.59093 37 72 97 0.250568 0.490375 -0.834714
-1.38974 0.009201 1.59123 82 81 82 0.175654 -0.655266 -0.734692
-1.42894 0.060459 1.59281 44 67 90 -0.330442 0.285988 -0.899455
-1.4018 -0.011904 1.59089 83 100 106 0.640381 -0.325865 -0.695503
-1.37466 0.057443 1.59158 44 83 108 0.495982 0.633848 -0.593497
-1.42592 0.060459 1.59172 44 67 90 -0.470867 0.477476 -0.741823
-1.44401 0.048398 1.59116 40 71 95 -0.599618 0.342871 -0.723117
-1.38672 0.006186 1.5928 85 104 110 -0.210363 -0.404543 -0.889996
-1.4018 -0.008889 1.59061 94 110 116 0.603877 -0.113135 -0.789007
-1.45306 0.051413 1.59021 63 67 82 0.373873 -0.246786 -0.894045
-1.39878 -0.008889 1.59255 98 113 113 0.545571 -0.040258 -0.837097
-1.41989 0.063474 1.59056 50 78 100 -0.244163 0.836911 -0.489862
-1.38371 0.006186 1.59211 85 104 110 -0.039969 -0.339088 -0.939905
-1.45004 0.051413 1.59167 53 69 88 0.344706 -0.234167 -0.909034
-1.41688 0.063474 1.59017 50 78 100 0.009497 0.842504 -0.538606
-1.38069 0.006186 1.59275 85 104 110 0.110591 -0.421364 -0.900123
-1.45004 -0.02698 1.5925 89 105 113 -0.371529 -0.200944 -0.906415
-1.41386 0.063474 1.59076 50 78 100 0.043231 0.835326 -0.548052
-1.38672 0.063474 1.59199 51 95 121 0.261222 0.536523 -0.802438
-1.38672 0.009201 1.5914 92 107 109 -0.065357 -0.485313 -0.871894
-1.41085 0.063474 1.5906 43 78 102 -0.001357 0.831841 -0.555013
-1.38371 0.063474 1.59283 43 79 102 0.15772 0.590325 -0.791606
-1.44703 -0.029995 1.59284 96 111 119 -0.114749 -0.382958 -0.916611
-1.38371 0.009201 1.5909 97 111 111 -0.05439 -0.383387 -0.921985
-1.40783 0.063474 1.5909 43 78 102 0.006927 0.75777 -0.652485
-1.38371 0.012217 1.59009 88 107 111 0.001213 -0.28256 -0.959249
-1.40481 0.063474 1.59068 39 74 99 -0.238469 0.5154 -0.823101
-1.38069 0.009201 1.59062 81 103 112 0.200264 -0.501413 -0.841712
-1.37768 0.009201 1.59202 72 99 112 0.399188 -0.470298 -0.787063
-1.44401 -0.02698 1.59105 91 103 111 -0.0097 -0.655427 -0.755196
-1.40481 0.066489 1.59245 39 74 99 -0.472584 0.439879 -0.763656
-1.37768 0.012217 1.59033 75 99 110 0.440558 -0.470038 -0.764835
-1.441 -0.02698 1.59136 80 101 115 0.018104 -0.775689 -0.630856
-1.43798 -0.02698 1.5911 81 100 112 -0.037517 -0.829536 -0.557192
-1.37466 0.012217 1.59206 75 100 113 0.519728 -0.466593 -0.715663
-1.37466 0.015232 1.59014 69 99 114 0.616063 -0.388136 -0.685432
-1.37165 0.018247 1.5916 69 99 114 0.618078 -0.268522 -0.738834
-1.37165 0.021262 1.59054 59 93 110 0.46091 -0.40269 -0.790824
-1.36863 0.021262 1.59189 62 91 107 0.376011 -0.459213 -0.804823
-1.36863 0.024277 1.59026 62 91 107 0.403981 -0.413561 -0.815945
-1.36562 0.024277 1.59175 62 91 107 0.521676 -0.302858 -0.797578
-1.36562 0.027292 1.59102 76 97 108 0.690042 -0.055949 -0.721603
-1.36562 0.030307 1.59128 76 97 108 0.710107 0.172564 -0.682619
-1.37165 0.033322 1.59032 54 73 86 0.630552 0.206053 -0.748296
-1.36863 0.033322 1.59282 57 88 106 0.410336 0.66285 -0.626302
-1.44703 0.051413 1.59283 47 66 86 0.202376 -0.095601 -0.974631
-1.44401 0.051413 1.59176 44 66 89 -0.41332 0.285206 -0.864769
-1.37165 0.039353 1.59019 97 113 120 0.417972 -0.195053 -0.887273
-1.44703 0.054428 1.59198 63 69 86 0.282937 -0.285839 -0.915556
-1.36863 0.039353 1.59185 43 70 87 0.586579 -0.284546 -0.75826
-1.441 0.051413 1.59102 51 70 92 -0.185537 0.624078 -0.759014
-1.36863 0.042368 1.59053 52 76 89 0.712417 0.029625 -0.701131
-1.44401 0.057443 1.59272 85 64 76 0.466829 0.036534 -0.883592
-1.43497 0.054428 1.59245 46 76 100 -0.251758 0.704605 -0.663437
-1.43195 0.054428 1.59151 46 76 100 -0.166965 0.561063 -0.810759
-1.42894 0.054428 1.5909 47 77 100 -0.324235 0.382628 -0.86514
-1.42894 0.057443 1.59188 42 77 100 -0.389004 0.345609 -0.85395
-1.43497 -0.02698 1.59087 73 96 108 0.031999 -0.81388 -0.580151
-1.43195 -0.02698 1.59146 72 95 107 0.241354 -0.686203 -0.686203
-1.42894 -0.02698 1.59275 78 97 107 0.311121 -0.627078 -0.714127
-1.41617 -0.023965 1.59587 69 89 101 0.209971 -0.65791 -0.723234
-1.38026 0.000156 1.59587 80 101 111 0.544248 -0.451044 -0.707356
-1.43195 0.060963 1.59587 80 62 74 0.103308 0.33139 -0.937821
-1.37779 0.003171 1.59587 80 101 111 0.541519 -0.438846 -0.717057
-1.37165 0.010118 1.59587 104 122 129 0.726997 -0.579964 -0.367583
-1.43426 0.063474 1.59587 80 62 74 0.314536 0.125544 -0.940907
-1.45004 -0.032565 1.59587 142 124 116 -0.044149 -0.699261 -0.713502
-1.44703 -0.03296 1.59587 142 124 116 0.086037 -0.689751 -0.718916
-1.44401 -0.03232 1.59587 136 129 125 0.239078 -0.58285 -0.776613
-1.41386 -0.023528 1.59587 69 89 101 0.309417 -0.821447 -0.479047
-1.37017 0.012217 1.59587 104 122 129 0.767628 -0.545547 -0.33634
-1.37768 0.003368 1.59587 73 98 108 0.672032 -0.416494 -0.612296
-1.441 -0.030547 1.59587 96 104 109 0.186435 -0.55021 -0.813948
-1.43798 -0.030455 1.59587 119 114 111 0.076614 -0.643266 -0.7618
-1.41085 -0.021968 1.59587 70 90 102 0.440957 -0.77615 -0.45072
-1.36863 0.01475 1.59587 81 103 113 0.707727 -0.432592 -0.558558
-1.36838 0.015232 1.59587 73 97 108 0.662331 -0.585199 -0.467824
-1.43497 -0.030551 1.59587 78 95 104 0.152221 -0.770149 -0.619435
-1.36562 0.017908 1.59587 73 97 108 0.570656 -0.651457 -0.499955
-1.43373 0.066489 1.59587 80 62 74 0.315874 -0.047317 -0.947621
-1.40918 -0.02095 1.59587 72 91 103 0.523887 -0.758902 -0.386795
-1.43219 -0.029995 1.59587 102 101 103 0.1553 -0.838623 -0.522105
-1.40783 -0.019791 1.59587 72 91 103 0.469977 -0.775706 -0.421191
-1.42894 0.062714 1.59587 74 67 83 -0.308041 0.688657 -0.656401
-1.43195 -0.029924 1.59587 72 94 106 0.252129 -0.84807 -0.466056
-1.36522 0.018247 1.59587 62 90 105 0.747064 -0.537821 -0.390697
-1.42894 -0.029029 1.59587 84 103 111 0.221827 -0.827644 -0.515556
-1.40481 -0.018301 1.59587 78 95 103 0.38485 -0.797075 -0.465363
-1.42592 -0.028301 1.59587 93 107 114 0.231759 -0.77616 -0.586398
-1.40399 -0.017935 1.59587 78 95 103 0.387172 -0.798442 -0.461072
-1.4229 -0.027271 1.59587 85 99 106 0.183565 -0.799496 -0.571935
-1.4018 -0.016801 1.59587 83 99 106 0.484471 -0.70756 -0.514438
-1.42703 0.063474 1.59587 74 67 83 -0.241064 0.561446 -0.791623
-1.41989 -0.027083 1.59587 85 99 106 0.084746 -0.823042 -0.561622
-1.39935 -0.01492 1.59587 86 102 107 0.520711 -0.62519 -0.581376
-1.42592 0.063816 1.59587 74 67 83 -0.2872 0.659438 -0.694736
-1.41929 -0.02698 1.59587 76 92 101 0.331716 -0.593852 -0.733011
-1.39878 -0.014441 1.59587 94 108 110 0.582834 -0.559183 -0.589592
-1.41688 -0.024385 1.59587 70 89 99 0.42253 -0.397019 -0.814766
-1.36355 0.021262 1.59587 61 90 105 0.77784 -0.352685 -0.520171
-1.39646 -0.011904 1.59587 86 102 107 0.594493 -0.510287 -0.621439
-1.36282 0.024277 1.59587 61 90 105 0.901717 -0.104527 -0.4195
-1.4229 0.065135 1.59587 48 70 92 -0.214866 0.78372 -0.582766
-1.36562 0.035225 1.59587 47 76 94 0.660758 0.463367 -0.5905
-1.3663 0.036338 1.59587 47 76 94 0.745045 0.018172 -0.666766
-1.41989 0.065484 1.59587 48 70 92 -0.109526 0.910868 -0.397898
-1.36284 0.027292 1.59587 57 88 103 0.903235 0.11623 -0.413107
-1.36394 0.030307 1.59587 57 87 102 0.855363 0.251577 -0.452839
-1.41688 0.065984 1.59587 57 70 90 -0.059002 0.93486 -0.350081
-1.36436 0.033322 1.59587 51 79 97 0.777654 0.248787 -0.577373
-1.39577 -0.011286 1.59587 114 126 125 0.377506 -0.547465 -0.746841
-1.41386 0.066126 1.59587 57 70 90 -0.056816 0.928878 -0.366002
-1.39275 -0.009271 1.59587 84 101 107 0.451735 -0.698439 -0.555084
-1.41085 0.066363 1.59587 57 70 90 -0.022634 0.896054 -0.443367
-1.3918 -0.008889 1.59587 84 101 107 0.464162 -0.584811 -0.665244
-1.38974 -0.006673 1.59587 84 102 108 0.464287 -0.524195 -0.713903
-1.41025 0.066489 1.59587 57 70 90 -0.284528 0.834928 -0.471104
-1.40783 0.067495 1.59587 57 70 90 -0.451208 0.773732 -0.444692
-1.36509 0.042368 1.59587 46 71 87 0.668888 -0.001379 -0.743362
-1.40153 0.072519 1.59587 38 69 93 -0.319068 0.828318 -0.460526
-1.39275 -0.000762 1.59587 65 88 98 0.093954 0.382624 -0.919115
-1.39878 0.073656 1.59587 38 69 93 -0.363147 0.801483 -0.475131
-1.40535 0.069504 1.59587 57 70 90 -0.583512 0.727347 -0.361222
-1.39577 0.074592 1.59587 38 69 93 -0.199944 0.692828 -0.692828
-1.40481 0.069993 1.59587 57 70 90 -0.580707 0.733611 -0.352979
-1.39428 0.075534 1.59587 47 69 90 -0.340265 0.549906 -0.762773
-1.4018 0.072353 1.59587 57 70 90 -0.571297 0.728445 -0.378137
-1.39275 0.076654 1.59587 47 69 90 -0.279999 0.654398 -0.702398
-1.39394 0.000156 1.59587 65 88 98 0.444357 0.123511 -0.887295
-1.39039 0.000156 1.59587 68 92 103 -0.298635 -0.062803 -0.952299
-1.37609 0.006186 1.59587 69 86 97 0.755009 -0.502793 -0.420905
-1.37466 0.007631 1.59587 69 95 107 0.582435 -0.659646 -0.475012
-1.37257 0.009201 1.59587 75 97 107 0.620521 -0.663774 -0.417562
-1.38917 -0.005874 1.59587 82 99 105 0.246067 -0.306505 -0.919514
-1.38672 -0.004331 1.59587 78 98 107 0.171746 -0.518225 -0.837822
-1.38371 -0.003797 1.59587 77 96 106 0.383131 -0.702133 -0.600184
-1.3827 -0.002859 1.59587 76 97 105 0.567933 -0.470765 -0.675154
-1.38069 -0.000288 1.59587 79 100 109 0.542776 -0.505807 -0.670488
-1.39275 0.002979 1.59587 55 72 81 0.040757 -0.260599 -0.964586
-1.39275 0.006186 1.59324 66 77 83 0.00134 -0.516071 -0.856545
-1.41989 -0.023965 1.59348 71 90 102 0.427608 -0.526667 -0.734693
-1.38974 0.006186 1.59374 66 77 83 -0.127907 -0.356215 -0.925608
-1.37165 0.012217 1.59457 104 122 129 0.577229 -0.430842 -0.693673
-1.38974 0.000156 1.59527 69 90 99 -0.473792 -0.091384 -0.875882
-1.37165 0.015232 1.5929 68 94 107 0.614056 -0.383579 -0.689784
-1.38672 0.000156 1.59389 69 90 99 -0.2051 -0.237699 -0.949438
-1.36863 0.015232 1.59557 81 103 113 0.59686 -0.346407 -0.723713
-1.41688 -0.023965 1.59565 72 91 102 0.254309 -0.803493 -0.538262
-1.38974 0.003171 1.59462 69 90 99 -0.286741 -0.316151 -0.904338
-1.41085 -0.02095 1.59386 70 90 102 0.445421 -0.802401 -0.397181
-1.38672 0.003171 1.59347 69 90 99 -0.27326 -0.188124 -0.943365
-1.36863 0.018247 1.59392 72 96 108 0.435138 -0.497536 -0.750408
-1.38371 0.000156 1.59383 79 100 110 0.227696 -0.377535 -0.897564
-1.40481 -0.017935 1.59531 78 95 103 0.432182 -0.801705 -0.412902
-1.36562 0.018247 1.59524 73 97 108 0.41669 -0.528685 -0.739501
-1.4018 -0.01492 1.59372 83 99 106 0.53497 -0.595724 -0.599099
-1.38371 0.003171 1.5929 79 100 110 0.171527 -0.295026 -0.939967
-1.36562 0.021262 1.59348 63 90 104 0.661872 -0.403095 -0.632013
-1.38069 0.000156 1.59558 82 102 112 0.417218 -0.363688 -0.832862
-1.39878 -0.011904 1.59356 94 108 110 0.579327 -0.492008 -0.649853
-1.38069 0.003171 1.59403 82 102 112 0.421913 -0.386886 -0.819944
-1.36562 0.033322 1.59382 47 76 94 0.65703 0.392232 -0.64379
-1.39577 -0.008889 1.59438 114 126 125 0.449334 -0.271441 -0.851128
-1.37768 0.006186 1.59445 73 98 108 0.514467 -0.474508 -0.714259
-1.44401 -0.029995 1.59391 136 129 125 0.269045 -0.638384 -0.721167
-1.36863 0.036338 1.59337 47 76 94 0.610301 0.264728 -0.746627
-1.39577 -0.005874 1.59386 74 94 100 0.267082 -0.108136 -0.957587
-1.441 -0.029995 1.59541 96 104 109 0.142513 -0.754569 -0.640559
-1.39275 -0.008889 1.59557 84 101 107 0.279809 -0.366594 -0.887308
-1.43798 -0.029995 1.59537 119 114 111 -0.009657 -0.784987 -0.619436
-1.39275 -0.005874 1.59431 72 93 102 0.286682 -0.161683 -0.944284
-1.38974 -0.005874 1.59571 84 102 108 0.330472 -0.055727 -0.942169
-1.39577 -0.002859 1.59386 58 82 94 0.338052 0.157201 -0.927905
-1.43497 -0.029995 1.5952 78 95 104 0.043629 -0.806442 -0.589702
-1.44401 0.054428 1.59315 53 69 89 0.025522 0.021439 -0.999444
-1.43497 0.060459 1.59483 68 69 85 0.085897 0.323767 -0.942229
-1.38974 0.072519 1.59316 41 68 89 0.098878 0.101204 -0.98994
-1.441 0.054428 1.59299 55 68 88 0.105576 0.227688 -0.967994
-1.42592 -0.02698 1.59429 93 107 114 0.256981 -0.752023 -0.606978
-1.43798 0.054428 1.59314 55 68 88 -0.022017 0.376876 -0.926002
-1.39577 0.000156 1.59449 50 71 82 0.459331 -0.009266 -0.888217
-1.441 0.057443 1.59393 59 69 89 0.243753 0.042871 -0.968889
-1.39275 -0.002859 1.59459 66 91 102 0.255932 0.182809 -0.949252
-1.4229 -0.02698 1.59545 85 99 106 0.199752 -0.723133 -0.661194
-1.38974 -0.002859 1.59526 71 95 105 -0.024435 -0.064807 -0.997599
-1.41989 -0.02698 1.59577 85 99 106 0.152639 -0.642294 -0.751106
-1.43798 0.057443 1.59423 48 72 93 0.015539 0.235469 -0.971758
-1.38672 -0.002859 1.59532 78 98 107 -0.003881 -0.410093 -0.912036
-1.43497 0.057443 1.59388 47 71 92 -0.199317 0.320887 -0.925907
-1.38371 -0.002859 1.59528 77 96 106 0.10785 -0.432801 -0.895015
-1.43195 0.057443 1.5929 38 71 94 -0.264576 0.533849 -0.803122
-1.43195 0.060459 1.59547 47 71 92 -0.301568 0.662804 -0.685381
-1.43497 0.063474 1.59556 68 69 85 0.311381 0.076868 -0.947171
-1.39275 0.003171 1.59562 55 72 81 0.085601 -0.628223 -0.77331
-1.42592 0.063474 1.59541 74 67 83 -0.384191 0.750398 -0.537867
-1.4229 0.063474 1.59297 48 70 92 -0.344278 0.813893 -0.468028
-1.40783 0.066489 1.59456 57 70 90 -0.382387 0.717181 -0.582607
-1.40481 0.069504 1.59506 57 70 90 -0.586288 0.653484 -0.478774
-1.38371 0.066489 1.59482 44 68 88 0.101842 0.359841 -0.927439
-1.39275 0.075534 1.59506 47 69 90 -0.30069 0.427134 -0.852726
-1.37466 0.009201 1.59438 69 95 107 0.530484 -0.533852 -0.658474
-1.41114 -0.023965 1.59888 72 91 103 0.452631 -0.717909 -0.528898
-1.41085 -0.023814 1.59888 72 91 103 0.45393 -0.703342 -0.547044
-1.37165 0.009479 1.59888 90 109 117 0.744904 -0.664837 -0.055761
-1.39482 0.078549 1.59888 47 69 90 -0.277787 0.753992 -0.595257
-1.40783 -0.021826 1.59888 73 91 103 0.461091 -0.700792 -0.544321
-1.36926 0.012217 1.59888 90 109 117 0.720524 -0.681738 -0.1268
-1.40646 -0.02095 1.59888 78 95 103 0.47628 -0.683504 -0.553154
-1.36863 0.013148 1.59888 73 97 108 0.759232 -0.562573 -0.327227
-1.40481 -0.020015 1.59888 77 95 103 0.398951 -0.793055 -0.460328
-1.36671 0.015232 1.59888 73 97 108 0.766233 -0.557406 -0.319665
-1.4018 -0.018512 1.59888 78 95 103 0.444501 -0.793635 -0.415406
-1.40078 -0.017935 1.59888 87 101 106 0.450298 -0.795688 -0.405107
-1.39878 -0.016704 1.59888 83 100 106 0.509574 -0.718715 -0.473057
-1.39644 -0.01492 1.59888 86 102 107 0.569619 -0.620326 -0.539194
-1.39577 -0.014322 1.59888 86 102 107 0.572731 -0.593004 -0.565973
-1.39331 -0.011904 1.59888 92 105 108 0.614416 -0.62115 -0.486483
-1.39275 -0.011442 1.59888 96 110 111 0.504231 -0.77337 -0.384253
-1.38974 -0.009186 1.59888 84 101 107 0.545441 -0.753849 -0.366341
-1.38923 -0.008889 1.59888 82 99 105 0.405107 -0.795688 -0.450298
-1.43497 -0.033353 1.59888 133 109 103 0.472171 -0.381927 -0.794472
-1.38672 -0.007431 1.59888 82 99 105 0.417029 -0.726917 -0.5456
-1.43451 -0.03301 1.59888 102 101 103 0.417756 -0.640782 -0.64411
-1.43195 -0.031709 1.59888 77 94 104 0.31356 -0.787878 -0.530027
-1.38371 -0.006012 1.59888 82 99 105 0.379728 -0.802717 -0.45984
-1.38344 -0.005874 1.59888 80 98 105 0.495207 -0.70196 -0.511881
-1.38069 -0.003586 1.59888 76 97 105 0.554918 -0.625759 -0.548171
-1.37989 -0.002859 1.59888 75 95 103 0.590138 -0.603665 -0.536028
-1.37768 -0.000865 1.59888 76 97 105 0.620326 -0.569619 -0.539194
-1.41989 0.067727 1.59888 64 70 89 0.217621 0.566432 -0.794856
-1.42219 0.069504 1.59888 64 70 89 0.375299 0.25366 -0.89152
-1.41688 0.067232 1.59888 57 70 90 0.0438 0.78981 -0.611785
-1.41386 0.067344 1.59888 57 70 90 -0.078081 0.844691 -0.529529
-1.41085 0.067796 1.59888 57 70 90 -0.206063 0.85283 -0.479811
-1.40783 0.069067 1.59888 57 70 90 -0.424183 0.798367 -0.427409
-1.40716 0.069504 1.59888 57 70 90 -0.567076 0.737035 -0.367701
-1.40481 0.071388 1.59888 57 70 90 -0.570427 0.712621 -0.408393
-1.40338 0.072519 1.59888 57 70 90 -0.555599 0.74786 -0.363339
-1.36562 0.01697 1.59888 66 93 106 0.755093 -0.607528 -0.246465
-1.37727 0.000156 1.59888 67 86 99 0.944449 -0.237831 -0.226833
-1.36465 0.018247 1.59888 62 90 105 0.617243 -0.717687 -0.322392
-1.4018 0.073575 1.59888 38 69 93 -0.479588 0.743279 -0.466403
-1.3626 0.019872 1.59888 61 90 105 0.756496 -0.535241 -0.375808
-1.36194 0.021262 1.59888 61 90 105 0.90682 -0.115616 -0.405353
-1.36204 0.024277 1.59888 61 90 105 0.886418 -0.084885 -0.455037
-1.39878 0.075426 1.59888 38 69 93 -0.468237 0.757393 -0.455093
-1.39863 0.075534 1.59888 38 69 93 -0.453787 0.654727 -0.604492
-1.36171 0.027292 1.59888 57 87 102 0.856465 -0.042754 -0.514431
-1.36167 0.030307 1.59888 57 87 102 0.864677 0.097968 -0.492682
-1.37657 0.003171 1.59888 76 97 107 0.909967 -0.368286 -0.190592
-1.39577 0.077976 1.59888 38 69 93 -0.475012 0.582435 -0.659646
-1.36227 0.033322 1.59888 51 80 96 0.832023 0.155726 -0.532435
-1.37486 0.006186 1.59888 65 81 91 0.859026 -0.504056 -0.089452
-1.3626 0.035456 1.59888 51 79 95 0.762022 0.181725 -0.621529
-1.36269 0.036338 1.59888 51 79 95 0.636224 0.0069 -0.771473
-1.37466 0.006409 1.59888 75 97 107 0.705625 -0.708419 -0.01537
-1.3719 0.009201 1.59888 82 99 107 0.713884 -0.699858 0.023843
-1.36265 0.039353 1.59888 47 72 87 0.632529 -0.018072 -0.774326
-1.42894 -0.030448 1.59888 94 97 102 0.234279 -0.831459 -0.503775
-1.42592 -0.030351 1.59888 94 97 102 0.094189 -0.878625 -0.468131
-1.3626 0.039435 1.59888 46 72 86 0.706461 -0.240732 -0.665553
-1.36186 0.042368 1.59888 46 70 87 0.882188 0.053508 -0.467848
-1.4245 -0.029995 1.59888 94 106 111 0.238469 -0.823101 -0.5154
-1.4229 -0.029424 1.59888 85 99 104 0.131077 -0.823282 -0.552291
-1.41989 -0.029016 1.59888 85 99 106 0.072677 -0.819402 -0.568594
-1.41688 -0.029177 1.59888 77 93 103 0.406115 -0.820194 -0.40293
-1.41458 -0.02698 1.59888 77 92 101 0.676957 -0.620681 -0.395581
-1.41386 -0.025893 1.59888 76 92 101 0.51308 -0.700263 -0.496368
-1.41386 -0.023965 1.59654 71 90 102 0.453706 -0.657957 -0.601035
-1.37768 0.000156 1.59817 80 101 111 0.740731 -0.384265 -0.551052
-1.43195 0.063474 1.59662 50 66 88 0.178116 0.165302 -0.970026
-1.37768 0.003171 1.59599 80 101 111 0.895265 -0.258961 -0.362545
-1.43195 0.066489 1.59646 61 70 88 0.32672 -0.039719 -0.944286
-1.40783 -0.02095 1.59748 73 91 103 0.508282 -0.726826 -0.461924
-1.3626 0.021262 1.59753 61 90 105 0.911334 -0.151183 -0.382902
-1.42894 0.063474 1.59678 74 67 83 -0.139542 0.398893 -0.906318
-1.3626 0.024277 1.59691 61 90 105 0.964414 -0.040855 -0.261221
-1.4018 -0.017935 1.59776 78 95 103 0.426632 -0.786754 -0.446098
-1.42894 0.066489 1.59753 73 68 84 0.090958 0.064007 -0.993796
-1.42592 0.066489 1.5973 74 67 83 -0.014106 0.368035 -0.929705
-1.36562 0.036338 1.59645 47 76 94 0.657252 0.09222 -0.748008
-1.39878 -0.01492 1.59642 83 100 106 0.569619 -0.620326 -0.539194
-1.39577 -0.011904 1.59659 86 102 107 0.523879 -0.635056 -0.567676
-1.3626 0.027292 1.59643 58 88 102 0.929942 -0.006361 -0.367651
-1.38974 -0.008889 1.59812 84 101 107 0.524116 -0.681518 -0.51072
-1.39275 0.000156 1.59627 69 92 104 0.000978 0.000978 -0.999999
-1.38672 -0.005874 1.59705 82 99 105 0.381014 -0.625127 -0.681207
-1.4229 0.066489 1.59723 46 68 90 0.088542 0.60528 -0.791073
-1.44703 -0.03301 1.59592 142 124 116 0.03205 -0.5783 -0.815194
-1.41989 0.066489 1.59764 49 73 94 0.006778 0.844534 -0.535459
-1.38371 -0.005874 1.59866 82 99 105 0.278995 -0.7222 -0.632921
-1.38069 -0.002859 1.59827 76 97 105 0.620071 -0.528835 -0.579522
-1.41688 0.066489 1.59727 57 70 90 -0.04609 0.925754 -0.375306
-1.43798 -0.03301 1.59759 119 114 111 0.147618 -0.431388 -0.890007
-1.41386 0.066489 1.59689 57 70 90 -0.080208 0.914913 -0.395601
-1.4229 0.069504 1.59863 50 70 90 0.232432 0.207966 -0.950119
-1.43497 -0.03301 1.59863 133 109 103 0.146026 -0.660879 -0.736149
-1.43195 -0.029995 1.59599 77 94 104 0.313391 -0.817337 -0.483473
-1.4229 0.072519 1.59886 71 71 88 0.372858 0.021933 -0.927629
-1.42894 -0.029995 1.59797 94 97 102 0.210104 -0.868727 -0.448519
-1.3626 0.030307 1.59739 56 84 101 0.797107 0.197364 -0.570673
-1.3626 0.033322 1.59836 51 79 96 0.797416 0.148113 -0.584971
-1.42592 -0.029995 1.59824 94 97 102 0.145395 -0.844469 -0.515493
-1.41085 0.066489 1.59615 57 70 90 -0.109989 0.906363 -0.407933
-1.4018 0.072519 1.59632 57 70 90 -0.496573 0.799945 -0.336903
-1.41688 -0.02698 1.59665 77 93 103 0.357308 -0.595513 -0.71951
-1.3626 0.042368 1.59798 46 72 86 0.678767 -0.009716 -0.73429
-1.39577 0.075534 1.59681 38 69 93 -0.395711 0.670556 -0.627508
-1.42592 -0.031837 1.6019 88 97 104 0.150191 -0.816383 -0.557639
-1.4229 -0.031267 1.6019 88 97 104 0.163998 -0.804946 -0.570233
-1.41591 0.072519 1.6019 61 70 89 0.317364 0.08823 -0.944191
-1.41386 0.069799 1.6019 57 70 90 0.256321 0.368924 -0.893418
-1.41989 -0.030668 1.6019 86 98 104 0.162014 -0.7707 -0.616257
-1.41442 0.075534 1.6019 61 70 89 0.410374 -0.107115 -0.905605
-1.41724 -0.029995 1.6019 95 98 101 0.190198 -0.84915 -0.492717
-1.41085 0.069647 1.6019 57 70 90 -0.182518 0.670256 -0.719336
-1.40783 0.071002 1.6019 57 70 90 -0.41631 0.67837 -0.605392
-1.41688 -0.029867 1.6019 78 92 102 0.579627 -0.656911 -0.482183
-1.41419 0.078549 1.6019 63 73 92 0.425339 -0.055362 -0.903339
-1.36562 0.015849 1.6019 63 92 107 0.627508 -0.670556 -0.395711
-1.41386 -0.027022 1.6019 78 92 102 0.423191 -0.45562 -0.783147
-1.41378 -0.02698 1.6019 78 91 101 0.234083 -0.550328 -0.801464
-1.4059 0.072519 1.6019 43 66 89 -0.476799 0.444029 -0.758618
-1.41085 -0.026214 1.6019 78 91 101 0.340495 -0.760062 -0.553506
-1.3626 0.017506 1.6019 63 92 107 0.483208 -0.725642 -0.48985
-1.43195 -0.034264 1.6019 105 98 99 0.172578 -0.302356 -0.937442
-1.36169 0.018247 1.6019 63 92 107 0.770212 -0.486878 -0.411974
-1.4301 -0.03301 1.6019 92 93 97 0.326634 -0.564771 -0.757855
-1.40783 -0.024921 1.6019 74 89 101 0.431157 -0.687521 -0.58431
