ply
format ascii 1.0
element vertex 737
property float x
property float y
property float z
property uchar red
property uchar green
property uchar blue
property float nx
property float ny
property float nz
end_header
-1.33245 -1.2287 1.60491 111 111 101 0.034228 0.502469 -0.863918
-1.32944 -1.22887 1.60491 112 112 101 0.055358 0.606097 -0.793462
-1.32642 -1.22904 1.60491 104 108 101 0.272204 0.622407 -0.733836
-1.33245 -1.23002 1.60442 121 116 100 -0.030143 -0.03638 -0.998883
-1.32944 -1.23002 1.60467 121 116 100 0.046074 0.052503 -0.997557
-1.32642 -1.23002 1.6048 114 115 106 0.051289 0.068749 -0.996315
-1.33245 -1.22288 1.60793 98 105 104 0.292993 0.290078 -0.911049
-1.33547 -1.23473 1.60793 111 112 101 -0.020975 -0.672594 -0.739714
-1.3342 -1.22097 1.60793 98 105 104 0.268149 0.253962 -0.929301
-1.33245 -1.23478 1.60793 111 112 101 -0.040911 -0.627778 -0.777316
-1.33169 -1.22399 1.60793 93 103 103 0.417575 0.271803 -0.867038
-1.32944 -1.23524 1.60793 111 112 101 -0.149324 -0.533723 -0.832371
-1.33547 -1.22004 1.60793 93 103 103 0.067331 0.352496 -0.933388
-1.32642 -1.23743 1.60793 123 119 104 -0.261258 -0.415295 -0.871364
-1.32804 -1.23605 1.60793 123 119 104 -0.265376 -0.452521 -0.851352
-1.32341 -1.2384 1.60793 126 122 105 -0.003992 -0.485639 -0.87415
-1.32944 -1.22608 1.60793 89 100 101 0.247419 0.539965 -0.804501
-1.32039 -1.23705 1.60793 130 126 109 0.24999 -0.434831 -0.865117
-1.32642 -1.22667 1.60793 89 100 101 0.023565 0.580815 -0.813695
-1.32341 -1.22634 1.60793 89 100 101 0.040414 0.561622 -0.826406
-1.32039 -1.22826 1.60793 97 106 102 0.234994 0.459376 -0.856593
-1.32223 -1.227 1.60793 97 106 102 0.234158 0.410149 -0.881447
-1.31738 -1.22954 1.60793 100 107 103 0.541562 0.406583 -0.7358
-1.31725 -1.23002 1.60793 97 107 106 0.748456 0.079932 -0.65835
-1.3415 -1.2333 1.60793 118 111 93 -0.150321 -0.55217 -0.820069
-1.34218 -1.23303 1.60793 118 111 93 -0.119316 -0.419711 -0.899781
-1.34451 -1.23188 1.60793 118 111 93 -0.190148 -0.211424 -0.95872
-1.34545 -1.23002 1.60793 118 111 93 -0.255319 -0.056046 -0.965231
-1.31932 -1.23605 1.60793 131 127 109 0.369236 -0.293882 -0.881645
-1.31757 -1.23303 1.60793 115 114 105 0.480198 -0.106869 -0.870626
-1.31738 -1.23287 1.60793 116 116 105 0.693845 -0.067798 -0.716925
-1.35657 -1.22891 1.60793 81 95 97 -0.072036 -0.149976 -0.986062
-1.35782 -1.227 1.60793 81 95 97 -0.170497 0.048209 -0.984178
-1.35429 -1.227 1.60793 81 95 97 0.088048 -0.003182 -0.996111
-1.35657 -1.22557 1.60793 81 95 97 -0.034609 0.117225 -0.992502
-1.34542 -1.227 1.60793 100 106 100 -0.372531 0.070767 -0.925318
-1.34485 -1.22399 1.60793 100 106 100 -0.388371 0.060057 -0.919544
-1.34451 -1.22351 1.60793 90 98 100 -0.321635 0.274638 -0.906159
-1.34234 -1.22097 1.60793 96 102 100 -0.314265 0.365883 -0.875995
-1.3415 -1.22039 1.60793 90 98 100 -0.148717 0.510938 -0.846655
-1.33848 -1.22001 1.60793 88 98 99 -0.022321 0.408351 -0.912552
-1.33547 -1.22399 1.60658 98 105 104 0.152417 0.319938 -0.935098
-1.33547 -1.23303 1.60646 111 112 101 -0.180062 -0.495543 -0.849715
-1.33245 -1.22399 1.60743 98 105 104 0.297165 0.317863 -0.900365
-1.33245 -1.23303 1.60644 111 112 101 0.004151 -0.712614 -0.701544
-1.33547 -1.22097 1.60763 98 105 104 0.039593 0.320574 -0.946396
-1.32944 -1.23303 1.60653 111 112 101 -0.064171 -0.600359 -0.797152
-1.33547 -1.23002 1.60531 111 112 101 -0.250818 -0.090396 -0.963804
-1.32944 -1.227 1.60685 89 100 101 0.092353 0.728564 -0.678723
-1.32642 -1.227 1.60733 89 100 101 0.159281 0.67808 -0.717521
-1.32642 -1.23605 1.6074 123 119 104 -0.236391 -0.435141 -0.868776
-1.32341 -1.23002 1.60618 89 100 101 0.282785 0.391665 -0.875575
-1.32341 -1.227 1.60751 89 100 101 0.125964 0.426015 -0.895904
-1.32039 -1.23002 1.60686 97 106 102 0.305163 0.281802 -0.90965
-1.32341 -1.23605 1.60654 126 122 105 -0.022608 -0.445503 -0.894995
-1.31738 -1.23002 1.60779 100 107 103 0.288509 0.170918 -0.942099
-1.32039 -1.23605 1.60734 130 126 109 0.336146 -0.398108 -0.853531
-1.32642 -1.23303 1.60586 111 112 105 -0.20282 -0.433769 -0.8779
-1.32341 -1.23303 1.60533 111 112 105 0.12729 -0.105877 -0.986198
-1.32039 -1.23303 1.60583 122 119 106 0.405967 -0.071961 -0.91105
-1.35657 -1.227 1.60782 81 95 97 0.000978 0.000978 -0.999999
-1.3415 -1.23303 1.60783 118 111 93 -0.215436 -0.326721 -0.92024
-1.34451 -1.23002 1.60764 100 106 100 -0.300637 -0.093211 -0.949173
-1.3415 -1.23002 1.60684 118 111 93 -0.227927 -0.219738 -0.948559
-1.34451 -1.227 1.60758 100 106 100 -0.363537 0.021838 -0.931324
-1.3415 -1.227 1.60637 100 106 100 -0.225092 0.0325 -0.973795
-1.34451 -1.22399 1.60778 100 106 100 -0.326799 0.123397 -0.937004
-1.3415 -1.22399 1.60689 100 106 100 -0.198831 0.212175 -0.95679
-1.3415 -1.22097 1.60766 96 102 100 -0.081624 0.294106 -0.952281
-1.33848 -1.23002 1.60603 104 108 101 -0.210356 -0.207676 -0.955312
-1.33848 -1.227 1.60617 104 108 101 -0.152219 0.09229 -0.984028
-1.33547 -1.227 1.60557 104 108 101 0.013406 0.274214 -0.961575
-1.33848 -1.22399 1.60661 104 108 101 -0.058497 0.247681 -0.967074
-1.33245 -1.227 1.60643 105 110 105 0.247566 0.49667 -0.831883
-1.33848 -1.22097 1.6076 97 103 100 -0.00372 0.316226 -0.948677
-1.32944 -1.24015 1.61094 114 113 101 -0.286828 -0.71627 -0.63615
-1.35356 -1.21638 1.61094 76 93 99 -0.132501 0.62082 -0.772675
-1.33151 -1.23906 1.61094 114 113 101 -0.272237 -0.651139 -0.708452
-1.35054 -1.21622 1.61094 76 93 99 -0.076168 0.602159 -0.794735
-1.33547 -1.23781 1.61094 114 113 101 -0.098425 -0.656658 -0.747738
-1.34753 -1.21577 1.61094 71 88 93 0.001311 0.449834 -0.893111
-1.33245 -1.23854 1.61094 114 113 101 -0.185458 -0.620749 -0.761759
-1.34451 -1.21636 1.61094 71 92 99 -0.031053 0.4658 -0.884345
-1.30833 -1.24246 1.61094 146 136 112 -0.0688 -0.395264 -0.915987
-1.31132 -1.24208 1.61094 146 136 112 -0.059183 -0.35641 -0.932453
-1.30757 -1.24208 1.61094 146 136 112 0.273862 -0.273862 -0.921954
-1.32642 -1.24109 1.61094 123 119 104 -0.186173 -0.727769 -0.66007
-1.32341 -1.24173 1.61094 123 119 104 -0.09862 -0.713888 -0.693281
-1.3415 -1.21532 1.61094 71 92 99 -0.167552 0.44729 -0.878554
-1.34104 -1.21494 1.61094 75 91 96 -0.340655 0.434845 -0.833585
-1.33848 -1.21268 1.61094 75 91 97 -0.272151 0.45051 -0.850279
-1.32039 -1.24182 1.61094 136 130 110 0.101329 -0.635878 -0.765109
-1.33779 -1.21193 1.61094 75 91 98 -0.52228 0.327423 -0.787412
-1.31738 -1.24081 1.61094 131 127 109 0.116018 -0.580088 -0.806249
-1.32944 -1.21208 1.61094 90 100 100 0.179321 0.34311 -0.922019
-1.31436 -1.24119 1.61094 128 126 108 -0.030686 -0.433611 -0.900577
-1.33074 -1.21193 1.61094 90 100 100 0.042631 0.504695 -0.862244
-1.31134 -1.24196 1.61094 131 128 108 -0.04343 -0.261819 -0.964139
-1.31134 -1.23649 1.61094 128 126 108 0.001234 0.314746 -0.949175
-1.33245 -1.21179 1.61094 74 90 97 0.080093 0.70919 -0.700453
-1.31234 -1.23605 1.61094 128 126 108 0.377005 0.257794 -0.889612
-1.31738 -1.22541 1.61094 97 106 102 0.509613 0.443644 -0.737207
-1.30659 -1.23906 1.61094 148 138 113 0.512468 0.012169 -0.85862
-1.31844 -1.22399 1.61094 97 106 102 0.523912 0.218424 -0.82329
-1.30988 -1.23605 1.61094 128 123 107 -0.072456 0.427901 -0.900917
-1.32341 -1.21824 1.61094 91 102 102 0.180851 0.234436 -0.955161
-1.30729 -1.23605 1.61094 137 130 110 0.46153 0.362517 -0.809674
-1.32361 -1.21796 1.61094 91 102 102 0.460548 0.178039 -0.869596
-1.31412 -1.23303 1.61094 110 114 107 0.589059 0.309778 -0.746356
-1.31945 -1.22097 1.61094 91 102 102 0.496833 0.217269 -0.840209
-1.31436 -1.23221 1.61094 107 114 108 0.703652 0.14981 -0.694573
-1.32039 -1.21969 1.61094 91 102 102 0.332174 0.317143 -0.888302
-1.31497 -1.23002 1.61094 97 107 106 0.765027 0.277184 -0.581294
-1.31621 -1.227 1.61094 97 107 106 0.687746 0.258898 -0.678216
-1.32474 -1.21494 1.61094 93 104 108 0.379675 0.288916 -0.878849
-1.32642 -1.2138 1.61094 94 106 111 0.214952 0.425457 -0.87908
-1.3415 -1.23737 1.61094 114 113 101 -0.023773 -0.650262 -0.759338
-1.30833 -1.23547 1.61094 119 118 107 0.001374 0.633537 -0.773712
-1.3642 -1.23002 1.61094 81 95 97 -0.432347 -0.228889 -0.872173
-1.36428 -1.227 1.61094 81 95 97 -0.588902 0.091157 -0.803048
-1.36326 -1.22399 1.61094 81 95 97 -0.586818 0.228812 -0.776717
-1.3626 -1.22311 1.61094 81 95 97 -0.521911 0.419833 -0.742529
-1.36086 -1.22097 1.61094 81 95 97 -0.494836 0.471666 -0.729841
-1.35959 -1.22 1.61094 81 95 97 -0.383887 0.598073 -0.703519
-1.35657 -1.2182 1.61094 84 98 99 -0.328356 0.583923 -0.74244
-1.35617 -1.21796 1.61094 84 98 99 -0.30728 0.533362 -0.788102
-1.33848 -1.2375 1.61094 114 113 101 -0.041213 -0.689247 -0.723354
-1.32944 -1.23906 1.61 114 113 101 -0.278908 -0.546786 -0.789452
-1.33245 -1.22097 1.60853 92 103 104 0.272807 0.203567 -0.940285
-1.33547 -1.23605 1.60926 114 113 101 -0.044059 -0.697841 -0.714896
-1.32944 -1.22399 1.60925 90 102 103 0.251237 0.300049 -0.920245
-1.33245 -1.23605 1.60895 114 113 101 -0.177523 -0.590227 -0.787475
-1.32944 -1.22097 1.60931 90 102 103 0.293142 0.103849 -0.950412
-1.32944 -1.23605 1.60833 114 113 101 -0.198577 -0.467327 -0.861494
-1.33547 -1.21796 1.60887 94 103 103 -0.009001 0.387064 -0.922009
-1.33245 -1.21796 1.609 94 103 103 0.15964 0.233522 -0.959157
-1.32944 -1.21796 1.60951 89 99 101 0.117559 0.141798 -0.98289
-1.35356 -1.21796 1.61003 76 93 99 -0.032741 0.388961 -0.920672
-1.35054 -1.21796 1.61023 76 93 99 0.061125 0.248241 -0.966768
-1.34753 -1.21796 1.61011 71 88 93 -0.121637 0.189352 -0.974346
-1.30833 -1.24208 1.61084 146 136 112 0.107298 -0.178829 -0.978012
-1.34451 -1.21796 1.6101 71 92 99 -0.092808 0.428024 -0.898989
-1.32642 -1.23906 1.60879 123 119 104 -0.195222 -0.622559 -0.757831
-1.3415 -1.21796 1.60961 71 92 99 -0.213767 0.452946 -0.865531
-1.32341 -1.23906 1.60845 123 119 104 -0.026659 -0.666476 -0.74505
-1.33848 -1.21796 1.60899 75 91 96 -0.102314 0.438689 -0.892795
-1.32039 -1.23906 1.60888 136 130 110 0.188564 -0.532505 -0.825156
-1.33848 -1.21494 1.61016 75 91 96 -0.122937 0.368812 -0.921338
-1.31738 -1.23906 1.60978 131 127 109 0.209031 -0.358957 -0.909646
-1.33547 -1.21494 1.61017 75 91 97 -0.033205 0.149994 -0.988129
-1.31738 -1.23605 1.6087 128 125 109 0.443255 -0.142014 -0.885075
-1.31738 -1.23303 1.60809 115 114 105 0.649595 -0.091965 -0.754698
-1.33547 -1.21193 1.6092 75 91 98 -0.010424 0.193432 -0.981058
-1.31436 -1.23906 1.61005 128 126 108 0.146007 -0.107394 -0.983437
-1.35356 -1.23605 1.61047 118 111 93 -0.093401 -0.444701 -0.890796
-1.31134 -1.23906 1.61021 131 128 108 0.009008 -0.015013 -0.999847
-1.31436 -1.23605 1.60985 127 125 108 0.341029 -0.006292 -0.940032
-1.33245 -1.21494 1.60998 90 100 100 0.041767 0.29996 -0.953037
-1.32944 -1.21494 1.61026 91 100 100 0.082705 0.25575 -0.963199
-1.33245 -1.21193 1.61089 90 100 100 0.22189 0.243941 -0.944064
-1.30833 -1.23906 1.61024 137 130 110 0.090111 -0.027142 -0.995562
-1.30833 -1.23605 1.61069 128 123 107 -0.001145 0.191268 -0.981537
-1.35054 -1.23605 1.61022 118 111 93 -0.061727 -0.451292 -0.890239
-1.32642 -1.22399 1.60953 89 100 101 -0.031882 0.332851 -0.94244
-1.35356 -1.23303 1.60909 118 111 93 -0.061288 -0.335126 -0.940178
-1.32341 -1.22399 1.60929 89 100 101 0.058965 0.344618 -0.936889
-1.35054 -1.23303 1.60897 118 111 93 -0.064064 -0.260025 -0.963474
-1.31436 -1.23303 1.61064 113 114 107 0.537456 0.111547 -0.835882
-1.32039 -1.227 1.60854 93 102 99 0.278488 0.355928 -0.892054
-1.34753 -1.23605 1.61002 118 111 93 -0.070674 -0.469771 -0.879955
-1.31738 -1.227 1.60945 97 109 105 0.511771 0.432784 -0.742151
-1.32039 -1.22399 1.60963 97 106 102 0.324008 0.360516 -0.87467
-1.34753 -1.23303 1.60869 118 111 93 -0.11524 -0.247312 -0.962058
-1.35356 -1.23002 1.60833 118 111 93 0.089554 -0.146869 -0.985094
-1.32642 -1.22097 1.61027 91 102 102 0.11874 0.072627 -0.990266
-1.35054 -1.23002 1.6086 118 111 93 0.009368 -0.05933 -0.998195
-1.34753 -1.23002 1.60845 118 111 93 -0.187366 0.036531 -0.981611
-1.32341 -1.22097 1.6097 91 102 102 0.008483 0.267822 -0.963431
-1.34451 -1.23605 1.60988 118 111 93 -0.057716 -0.556047 -0.829144
-1.3626 -1.23002 1.61 81 95 97 -0.42354 -0.128904 -0.896659
-1.32642 -1.21796 1.60954 91 102 102 0.243224 0.037889 -0.96923
-1.3626 -1.227 1.60976 81 95 97 -0.501732 0.068482 -0.862308
-1.34451 -1.23303 1.60826 118 111 93 -0.104386 -0.416151 -0.903284
-1.35959 -1.23002 1.60877 81 95 97 -0.299363 -0.305262 -0.903989
-1.3415 -1.23605 1.60964 118 111 93 -0.07625 -0.608561 -0.789835
-1.35959 -1.227 1.60832 81 95 97 -0.341409 -0.050627 -0.93855
-1.32039 -1.22097 1.61046 91 102 102 0.222695 0.278718 -0.934197
-1.3626 -1.22399 1.61044 81 95 97 -0.515891 0.249425 -0.819539
-1.35959 -1.22399 1.60864 81 95 97 -0.35929 0.255791 -0.897486
-1.33848 -1.23605 1.60932 114 113 101 -0.098017 -0.636382 -0.765121
-1.35657 -1.23002 1.60827 81 95 97 -0.107421 -0.354896 -0.928714
-1.32642 -1.21494 1.61043 93 103 106 0.098397 0.292567 -0.951169
-1.35356 -1.227 1.60806 81 95 97 0.195947 0.041564 -0.979733
-1.35657 -1.22399 1.60814 81 95 97 -0.052223 0.214962 -0.975225
-1.35356 -1.22399 1.60831 81 95 97 0.129536 0.182356 -0.974662
-1.35959 -1.22097 1.61007 81 95 97 -0.358796 0.497166 -0.789995
-1.35657 -1.22097 1.60894 84 98 99 -0.142051 0.389585 -0.90997
-1.35356 -1.22097 1.6091 85 98 99 0.118088 0.247855 -0.961573
-1.35054 -1.227 1.6086 91 98 95 0.133603 0.044534 -0.990034
-1.34753 -1.227 1.60895 91 98 95 -0.137659 0.081184 -0.987147
-1.35054 -1.22399 1.60906 91 98 95 0.148735 0.179244 -0.972496
-1.34753 -1.22399 1.60896 91 98 95 -0.266129 0.266129 -0.926472
-1.35054 -1.22097 1.6095 82 92 94 0.198545 0.206541 -0.958082
-1.34753 -1.22097 1.61057 82 92 94 -0.089589 0.187769 -0.978119
-1.34451 -1.22097 1.60878 94 100 100 -0.319079 0.322075 -0.891323
-1.35356 -1.23676 1.61094 97 82 72 -0.076559 -0.637026 -0.767031
-1.35743 -1.23605 1.61094 97 82 72 -0.09336 -0.538614 -0.837365
-1.35959 -1.23541 1.61094 97 82 72 -0.280159 -0.342417 -0.896806
-1.34753 -1.23724 1.61094 118 111 93 -0.046887 -0.637942 -0.768656
-1.30833 -1.23055 1.61396 106 110 105 0.137168 0.273004 -0.952184
-1.36863 -1.23351 1.61396 97 82 72 -0.452003 -0.248069 -0.856828
-1.30894 -1.23002 1.61396 106 110 105 0.141524 0.089196 -0.985908
-1.36877 -1.23303 1.61396 97 82 72 -0.486771 -0.004001 -0.87352
-1.30532 -1.23226 1.61396 114 115 107 0.529509 0.339594 -0.777365
-1.36707 -1.23605 1.61396 97 82 72 -0.394964 -0.401309 -0.826411
-1.36886 -1.23002 1.61396 97 82 72 -0.508422 0.017625 -0.860928
-1.30532 -1.24749 1.61396 147 137 114 0.394758 -0.498727 -0.771646
-1.30335 -1.24509 1.61396 147 137 114 0.571408 -0.235102 -0.78627
-1.33245 -1.2422 1.61396 132 124 103 -0.060983 -0.571538 -0.818306
-1.33353 -1.24208 1.61396 132 124 103 -0.040291 -0.548787 -0.83499
-1.30307 -1.24208 1.61396 147 137 114 0.655427 -0.0097 -0.755196
-1.31651 -1.21193 1.61396 77 93 97 0.508695 0.262904 -0.819824
-1.32944 -1.24252 1.61396 132 124 103 -0.067644 -0.654854 -0.752722
-1.30373 -1.23906 1.61396 145 136 112 0.640824 0.085734 -0.762886
-1.31738 -1.21131 1.61396 77 93 97 0.301599 0.679001 -0.669324
-1.3415 -1.24139 1.61396 114 113 101 0.004092 -0.56878 -0.82248
-1.35356 -1.21353 1.61396 69 91 99 -0.043724 0.613549 -0.788445
-1.30392 -1.23605 1.61396 136 130 113 0.662345 0.14635 -0.734766
-1.35054 -1.21343 1.61396 69 91 99 -0.126035 0.603486 -0.78735
-1.30487 -1.23303 1.61396 117 120 112 0.63312 0.237224 -0.736807
-1.33848 -1.2413 1.61396 114 113 101 -0.049279 -0.573049 -0.818038
-1.34753 -1.21226 1.61396 69 91 99 -0.172185 0.626266 -0.760357
-1.33547 -1.24178 1.61396 114 113 101 -0.087738 -0.559512 -0.824165
-1.36863 -1.22898 1.61396 85 96 97 -0.541948 0.114783 -0.832537
-1.3452 -1.21193 1.61396 71 89 96 -0.046966 0.681717 -0.730107
-1.36809 -1.227 1.61396 85 96 97 -0.604712 0.191365 -0.773113
-1.32642 -1.24334 1.61396 131 124 106 -0.189141 -0.727349 -0.659689
-1.34451 -1.21181 1.61396 71 92 99 -0.15578 0.757726 -0.633707
-1.32341 -1.24421 1.61396 131 124 106 -0.156278 -0.723736 -0.672149
-1.32039 -1.24491 1.61396 137 130 110 -0.055944 -0.687105 -0.724401
-1.3671 -1.22399 1.61396 85 96 97 -0.562404 0.244591 -0.789859
-1.31738 -1.24462 1.61396 142 133 111 0.055685 -0.649664 -0.758179
-1.36562 -1.22169 1.61396 82 97 99 -0.49853 0.366234 -0.78571
-1.3415 -1.21117 1.61396 71 92 99 -0.07597 0.812735 -0.577659
-1.31436 -1.2464 1.61396 149 140 114 -0.216364 -0.443174 -0.869933
-1.31608 -1.24509 1.61396 149 140 114 -0.227188 -0.492495 -0.840139
-1.33848 -1.21131 1.61396 66 84 92 -0.192917 0.815719 -0.545331
-1.36503 -1.22097 1.61396 78 92 94 -0.486878 0.411974 -0.770212
-1.33547 -1.20963 1.61396 66 84 92 -0.356648 0.819497 -0.448583
-1.31134 -1.24753 1.61396 149 140 114 -0.152553 -0.525791 -0.836822
-1.33325 -1.20891 1.61396 76 92 100 -0.130546 0.828746 -0.544185
-1.33245 -1.20875 1.61396 79 95 102 -0.051298 0.860978 -0.50605
-1.30833 -1.24792 1.61396 153 143 115 -0.029073 -0.566231 -0.823734
-1.32944 -1.2087 1.61396 79 95 102 0.062699 0.865246 -0.497412
-1.31134 -1.22408 1.61396 91 103 103 0.299676 0.13304 -0.944719
-1.31139 -1.22399 1.61396 91 103 103 0.310393 0.310393 -0.898506
-1.30955 -1.227 1.61396 109 115 110 0.287355 0.198511 -0.937027
-1.31436 -1.22102 1.61396 86 101 103 0.311472 0.317433 -0.895668
-1.3626 -1.21819 1.61396 78 92 94 -0.471165 0.422255 -0.774406
-1.36234 -1.21796 1.61396 78 92 94 -0.382266 0.443045 -0.810916
-1.35959 -1.21552 1.61396 74 91 97 -0.366 0.435714 -0.822312
-1.3588 -1.21494 1.61396 71 91 98 -0.318015 0.532156 -0.78465
-1.35657 -1.21375 1.61396 74 94 101 -0.128714 0.58143 -0.80335
-1.31442 -1.22097 1.61396 86 101 103 0.528363 0.205559 -0.823759
-1.3154 -1.21796 1.61396 86 101 103 0.499331 0.147896 -0.853695
-1.32341 -1.21038 1.61396 95 110 117 0.11594 0.576763 -0.808642
-1.32631 -1.20891 1.61396 95 110 117 0.297647 0.709525 -0.638734
-1.32642 -1.20885 1.61396 86 103 112 0.061351 0.895722 -0.440362
-1.32039 -1.20963 1.61396 85 102 109 0.061776 0.65368 -0.754246
-1.31634 -1.21494 1.61396 81 96 99 0.4243 0.134811 -0.89543
-1.31738 -1.24208 1.61192 143 134 113 -0.001369 -0.609379 -0.792878
-1.31738 -1.21193 1.61349 77 93 97 0.189308 0.084273 -0.978295
-1.36863 -1.23303 1.61388 97 82 72 -0.502845 -0.071435 -0.86142
-1.31436 -1.24208 1.6115 143 134 113 -0.18062 -0.506034 -0.84339
-1.36562 -1.23605 1.61332 97 82 72 -0.268296 -0.49472 -0.826601
-1.31134 -1.24208 1.61103 140 133 113 -0.110751 -0.430388 -0.895824
-1.36562 -1.23303 1.61227 97 82 72 -0.374863 -0.247439 -0.893449
-1.31134 -1.23605 1.61121 140 133 113 -0.001339 0.512919 -0.858436
-1.30532 -1.24208 1.61174 118 118 107 0.581502 -0.097159 -0.807722
-1.30532 -1.23906 1.61233 118 118 107 0.716782 0.098613 -0.690289
-1.30532 -1.23605 1.61244 118 118 107 0.581141 0.26301 -0.77013
-1.31134 -1.23303 1.61302 106 108 102 0.302952 0.354197 -0.88474
-1.31436 -1.23002 1.61187 101 107 102 0.575974 0.26984 -0.771648
-1.35356 -1.21494 1.61269 73 93 100 -0.076883 0.700649 -0.709352
-1.35054 -1.21494 1.61246 73 93 100 -0.120711 0.707872 -0.69595
-1.34753 -1.21494 1.61171 69 91 99 -0.0767 0.635304 -0.768443
-1.31134 -1.23002 1.61365 97 105 102 0.319519 0.161834 -0.933658
-1.36863 -1.23002 1.61381 97 82 72 -0.537872 0.014979 -0.842893
-1.30833 -1.23303 1.61316 114 115 107 0.15765 0.502417 -0.850131
-1.34451 -1.21494 1.6117 71 89 96 -0.109135 0.554405 -0.82506
-1.36562 -1.23002 1.61188 97 82 72 -0.533177 -0.023301 -0.845682
-1.30532 -1.23303 1.61372 127 122 108 0.194633 0.342384 -0.91918
-1.3415 -1.21494 1.61112 72 89 97 -0.174643 0.517957 -0.837389
-1.34451 -1.21193 1.61385 71 89 96 -0.17414 0.576932 -0.798013
-1.33245 -1.24208 1.61385 132 124 103 -0.139875 -0.666285 -0.732462
-1.3415 -1.21193 1.61315 70 88 95 -0.246691 0.598658 -0.762071
-1.32944 -1.24208 1.61339 132 124 103 -0.21254 -0.743113 -0.634516
-1.30532 -1.24509 1.61285 147 137 114 0.414688 -0.30986 -0.855582
-1.3415 -1.23906 1.61229 114 113 101 -0.00137 -0.601533 -0.798847
-1.33848 -1.23906 1.6123 114 113 101 -0.029352 -0.616382 -0.7869
-1.33848 -1.21193 1.61211 79 93 97 -0.311293 0.86334 -0.397167
-1.33547 -1.23906 1.61202 114 113 101 -0.113398 -0.60528 -0.787894
-1.33245 -1.23906 1.61137 120 115 101 -0.184857 -0.612624 -0.768453
-1.32642 -1.24208 1.6123 131 124 106 -0.190829 -0.786214 -0.587752
-1.32341 -1.24208 1.61139 131 124 106 -0.132864 -0.768822 -0.625508
-1.32039 -1.24208 1.61121 137 130 110 0.009743 -0.70008 -0.713998
-1.31436 -1.24509 1.61327 149 140 114 -0.250945 -0.488035 -0.835971
-1.32944 -1.21193 1.611 80 93 97 0.213098 0.639295 -0.738844
-1.36562 -1.227 1.61197 85 96 97 -0.595704 0.122688 -0.793779
-1.33245 -1.20891 1.61363 76 92 100 -0.020996 0.695664 -0.71806
-1.36562 -1.22399 1.61278 85 96 97 -0.582028 0.309453 -0.751986
-1.32944 -1.20891 1.61368 86 99 104 0.107295 0.630542 -0.768703
-1.31738 -1.22399 1.61164 91 102 102 0.454062 0.227785 -0.86136
-1.3626 -1.22097 1.61224 78 92 94 -0.497221 0.460879 -0.735093
-1.32341 -1.21796 1.61113 86 100 103 0.262035 0.302571 -0.9164
-1.35959 -1.21796 1.61262 78 92 94 -0.382453 0.515904 -0.766533
-1.35657 -1.21796 1.61117 78 93 97 -0.375895 0.525602 -0.763181
-1.31738 -1.22097 1.61212 84 99 102 0.483107 0.192944 -0.854038
-1.32039 -1.21796 1.61166 84 99 102 0.253549 0.369203 -0.894093
-1.31738 -1.21796 1.61284 84 99 102 0.373451 0.257399 -0.891224
-1.35657 -1.21494 1.61319 71 91 98 -0.28363 0.556169 -0.781172
-1.31436 -1.227 1.6131 86 99 101 0.477837 0.140882 -0.867078
-1.31134 -1.24509 1.61242 149 140 114 -0.143727 -0.477639 -0.86672
-1.31134 -1.227 1.61367 90 100 102 0.164797 0.045582 -0.985274
-1.31436 -1.22399 1.6131 80 96 99 0.450465 0.187571 -0.872868
-1.32341 -1.21494 1.61167 89 102 108 0.402436 0.266783 -0.875712
-1.32642 -1.21193 1.6122 89 103 108 0.222664 0.539001 -0.812341
-1.30833 -1.24509 1.612 153 143 115 0.070765 -0.467607 -0.881099
-1.32341 -1.21193 1.61295 91 104 109 0.242479 0.39719 -0.885124
-1.32039 -1.21494 1.6129 85 100 106 0.261487 0.253006 -0.931457
-1.31738 -1.21494 1.61365 76 97 99 0.232113 0.097665 -0.967773
-1.32039 -1.21193 1.61321 89 103 107 0.104379 0.210016 -0.97211
-1.32642 -1.20891 1.61386 86 103 112 0.07733 0.496318 -0.86469
-1.31436 -1.21007 1.61697 77 93 97 0.362713 0.625311 -0.69096
-1.30532 -1.25041 1.61697 133 121 106 0.404775 -0.745638 -0.529321
-1.35356 -1.2091 1.61697 68 94 105 -0.130083 0.656395 -0.743117
-1.30263 -1.24811 1.61697 133 121 106 0.582688 -0.5962 -0.552287
-1.35054 -1.2093 1.61697 68 94 105 -0.021031 0.685607 -0.727668
-1.37292 -1.23605 1.61697 97 82 72 -0.43316 -0.273977 -0.858667
-1.34753 -1.20926 1.61697 67 91 102 -0.012529 0.747581 -0.664052
-1.34451 -1.20937 1.61697 71 92 99 -0.067236 0.791096 -0.607985
-1.3415 -1.20912 1.61697 71 92 99 -0.087738 0.824165 -0.559512
-1.37452 -1.23303 1.61697 97 82 72 -0.435203 -0.104952 -0.894194
-1.37466 -1.233 1.61697 97 82 72 -0.459239 -0.041995 -0.88732
-1.34019 -1.20891 1.61697 66 84 92 -0.09767 0.785735 -0.610803
-1.37479 -1.23002 1.61697 97 82 72 -0.395779 -0.043681 -0.917306
-1.33848 -1.20861 1.61697 66 84 92 -0.138321 0.801669 -0.581545
-1.33547 -1.20814 1.61697 66 84 92 -0.206608 0.809597 -0.549424
-1.33245 -1.20702 1.61697 79 95 102 -0.185486 0.827902 -0.529314
-1.3415 -1.24601 1.61697 121 116 100 -0.164122 -0.389611 -0.906238
-1.31717 -1.20891 1.61697 77 93 97 0.265917 0.778869 -0.568024
-1.32944 -1.20683 1.61697 79 95 102 0.049346 0.813504 -0.579463
-1.3434 -1.24509 1.61697 121 116 100 -0.155863 -0.535873 -0.829787
-1.3023 -1.24747 1.61697 147 137 114 0.633073 -0.410417 -0.656335
-1.34753 -1.24376 1.61697 121 116 100 -0.08286 -0.664332 -0.742831
-1.31189 -1.21193 1.61697 77 93 97 0.409343 0.497409 -0.764868
-1.34451 -1.24472 1.61697 121 116 100 -0.206433 -0.650343 -0.731054
-1.30119 -1.24509 1.61697 147 137 114 0.674536 -0.269496 -0.687294
-1.31738 -1.20887 1.61697 77 93 97 0.065406 0.866983 -0.494027
-1.29952 -1.24208 1.61697 146 136 112 0.612326 -0.300538 -0.731255
-1.33547 -1.24869 1.61697 128 121 102 -0.094079 -0.46478 -0.880414
-1.29929 -1.2409 1.61697 141 135 115 0.649637 -0.032411 -0.759554
-1.30331 -1.23002 1.61697 106 113 108 0.724152 0.268971 -0.635026
-1.30442 -1.227 1.61697 106 113 108 0.699348 0.322901 -0.637689
-1.30532 -1.22565 1.61697 106 113 108 0.617217 0.47931 -0.623944
-1.33695 -1.24811 1.61697 128 121 102 -0.178085 -0.412635 -0.893319
-1.29911 -1.23906 1.61697 124 122 110 0.728957 0.006942 -0.684525
-1.33245 -1.24917 1.61697 128 118 99 0.12138 -0.400415 -0.908259
-1.3317 -1.24811 1.61697 128 118 99 0.280633 -0.274876 -0.919613
-1.29925 -1.23605 1.61697 124 122 110 0.767968 0.095082 -0.633391
-1.33848 -1.24717 1.61697 125 120 103 -0.168604 -0.458897 -0.872345
-1.29929 -1.23566 1.61697 117 120 112 0.654976 0.261673 -0.708896
-1.32944 -1.24609 1.61697 133 125 103 0.106248 -0.396015 -0.912076
-1.32039 -1.24901 1.61697 137 129 109 -0.279856 -0.508118 -0.814553
-1.32188 -1.24811 1.61697 137 129 109 -0.244841 -0.55674 -0.793784
-1.31738 -1.2507 1.61697 137 129 109 -0.262121 -0.497874 -0.826689
-1.32642 -1.2468 1.61697 131 124 106 -0.107989 -0.514026 -0.85095
-1.30658 -1.22399 1.61697 105 113 110 0.640181 0.370285 -0.673095
-1.30827 -1.22097 1.61697 100 109 108 0.63735 0.337421 -0.692772
-1.30833 -1.22064 1.61697 100 109 108 0.605505 0.043754 -0.794638
-1.32341 -1.24746 1.61697 131 124 106 -0.178105 -0.610428 -0.771788
-1.30905 -1.21796 1.61697 100 109 108 0.388033 0.145336 -0.910114
-1.31436 -1.25143 1.61697 143 132 109 -0.058894 -0.734023 -0.676566
-1.32642 -1.20745 1.61697 89 106 112 0.194756 0.834884 -0.51482
-1.32341 -1.20824 1.61697 80 99 109 0.207607 0.838007 -0.504623
-1.31623 -1.25112 1.61697 143 132 109 -0.103753 -0.603521 -0.790568
-1.32039 -1.20867 1.61697 85 102 109 0.082305 0.880246 -0.467325
-1.31134 -1.25166 1.61697 138 128 108 0.096821 -0.819368 -0.565032
-1.31134 -1.21264 1.61697 81 96 99 0.416089 0.244847 -0.87574
-1.30999 -1.21494 1.61697 81 96 99 0.367286 0.168753 -0.914671
-1.30862 -1.25112 1.61697 146 133 110 0.073998 -0.709508 -0.700802
-1.30833 -1.25105 1.61697 146 133 110 0.123533 -0.754595 -0.644457
-1.30057 -1.23303 1.61697 117 120 112 0.531881 0.439092 -0.724087
-1.3023 -1.23188 1.61697 115 119 112 0.574235 0.463741 -0.674684
-1.37466 -1.22962 1.61697 82 95 97 -0.34371 0.080951 -0.93558
-1.37379 -1.227 1.61697 82 95 97 -0.34099 0.106475 -0.934017
-1.37362 -1.22399 1.61697 82 95 97 -0.144965 -0.076607 -0.986467
-1.38069 -1.22107 1.61697 70 91 98 0.001314 -0.456129 -0.889912
-1.37466 -1.22375 1.61697 79 94 97 -0.161773 -0.198011 -0.966758
-1.37742 -1.22097 1.61697 79 94 97 -0.143232 -0.040105 -0.988876
-1.37466 -1.21918 1.61697 71 91 95 -0.080103 0.208267 -0.974786
-1.38081 -1.22097 1.61697 70 91 98 -0.544767 -0.07823 -0.83493
-1.37273 -1.21796 1.61697 78 94 98 -0.22737 0.159027 -0.960736
-1.37932 -1.22097 1.61697 69 90 98 -0.104754 -0.081731 -0.991134
-1.37165 -1.21638 1.61697 62 89 99 -0.152118 0.275966 -0.949054
-1.38069 -1.22095 1.61697 69 90 98 0.00123 0.308835 -0.951115
-1.36863 -1.21541 1.61697 65 90 99 -0.090724 0.256839 -0.962187
-1.36776 -1.21494 1.61697 65 90 99 -0.193558 0.270432 -0.943081
-1.36562 -1.21339 1.61697 65 90 99 -0.214142 0.340615 -0.915492
-1.36291 -1.21193 1.61697 74 91 97 -0.19777 0.508767 -0.83788
-1.3626 -1.21181 1.61697 74 94 102 -0.079606 0.638295 -0.765665
-1.35959 -1.21151 1.61697 74 94 102 -0.12711 0.695364 -0.707327
-1.35657 -1.21043 1.61697 72 96 106 -0.261148 0.732798 -0.628338
-1.31436 -1.21193 1.61554 77 93 97 0.478273 0.305781 -0.823257
-1.30833 -1.23002 1.614 113 115 108 0.328135 0.205972 -0.921902
-1.31738 -1.20891 1.61691 77 93 97 0.221396 0.832144 -0.508448
-1.35356 -1.21193 1.61505 66 90 98 -0.066692 0.566171 -0.821586
-1.30532 -1.23002 1.61466 115 118 110 0.496205 0.300873 -0.814406
-1.35054 -1.21193 1.61477 66 90 98 -0.067076 0.583703 -0.809192
-1.37165 -1.23605 1.61632 97 82 72 -0.444917 -0.267562 -0.854669
-1.30532 -1.227 1.61598 106 113 108 0.473033 0.327484 -0.81792
-1.34753 -1.21193 1.61429 69 91 99 -0.076857 0.685911 -0.723615
-1.30532 -1.24811 1.61436 133 121 106 0.297354 -0.667038 -0.683111
-1.33848 -1.20891 1.61665 66 84 92 -0.271009 0.749632 -0.603826
-1.33547 -1.20891 1.61537 66 84 92 -0.250612 0.858156 -0.448064
-1.3023 -1.24509 1.61504 147 137 114 0.733334 -0.31751 -0.601173
-1.31134 -1.22399 1.61398 86 99 101 0.465908 0.333243 -0.819682
-1.3023 -1.24208 1.61468 148 140 117 0.675843 -0.12383 -0.726569
-1.30833 -1.227 1.61421 109 114 109 0.39871 0.22974 -0.887834
-1.30833 -1.22399 1.61568 107 113 110 0.477014 0.367799 -0.798236
-1.3023 -1.23906 1.61471 143 137 116 0.564957 0.063717 -0.822657
-1.29929 -1.23906 1.61683 141 135 115 0.545109 0.054651 -0.836582
-1.3023 -1.23605 1.61527 128 124 112 0.524717 0.14257 -0.839253
-1.37165 -1.23303 1.61548 97 82 72 -0.462088 -0.133876 -0.876671
-1.29929 -1.23605 1.61694 123 120 110 0.495948 0.036889 -0.867568
-1.37466 -1.23002 1.6169 97 82 72 -0.389796 -0.016835 -0.920747
-1.37165 -1.23002 1.6156 97 82 72 -0.452318 0.064617 -0.889513
-1.3023 -1.23303 1.61605 123 121 112 0.5703 0.298728 -0.765192
-1.31436 -1.22097 1.61402 86 101 103 0.387394 0.261752 -0.883975
-1.36863 -1.23605 1.61474 97 82 72 -0.398678 -0.401855 -0.824359
-1.31134 -1.22097 1.61519 85 101 103 0.402476 0.284011 -0.870259
-1.3415 -1.24509 1.6164 121 116 100 -0.215548 -0.53352 -0.81786
-1.34753 -1.24208 1.6153 121 116 100 -0.083101 -0.67793 -0.730415
-1.37165 -1.227 1.6161 82 95 97 -0.461599 0.143255 -0.875445
-1.34451 -1.24208 1.61444 121 116 100 -0.095082 -0.633391 -0.767968
-1.31436 -1.21796 1.61476 86 101 103 0.479431 0.088575 -0.873098
-1.37165 -1.22399 1.61657 82 95 97 -0.378583 0.0882 -0.921355
-1.3415 -1.24208 1.61438 121 116 100 -0.09336 -0.538614 -0.837365
-1.31134 -1.21796 1.61618 86 101 103 0.3746 0.185147 -0.908513
-1.36863 -1.227 1.61432 88 97 97 -0.498492 0.190116 -0.84579
-1.33547 -1.24811 1.6166 128 121 102 0.034968 -0.356155 -0.933773
-1.36863 -1.22399 1.61519 83 96 97 -0.427429 0.15399 -0.890837
-1.33245 -1.24811 1.61671 128 118 99 0.075445 -0.277483 -0.957764
-1.30833 -1.22097 1.61694 100 109 108 0.468618 0.323457 -0.822054
-1.33848 -1.24509 1.61565 125 120 103 -0.118896 -0.47415 -0.872379
-1.37466 -1.22097 1.61657 79 94 97 -0.089544 -0.020498 -0.995772
-1.37165 -1.22097 1.61641 82 96 97 -0.196384 0.044038 -0.979538
-1.37165 -1.21796 1.61655 78 94 98 -0.149085 0.159107 -0.97594
-1.36863 -1.22097 1.61582 80 96 99 -0.320759 0.186292 -0.92866
-1.32341 -1.20891 1.61578 86 103 112 0.125304 0.868488 -0.479613
-1.36562 -1.22097 1.61437 80 96 99 -0.344688 0.308563 -0.886555
-1.36863 -1.21796 1.61632 78 96 99 -0.197261 0.248957 -0.948213
-1.33547 -1.24509 1.61533 128 121 104 -0.027811 -0.41982 -0.907181
-1.36562 -1.21796 1.61572 80 96 99 -0.324756 0.31877 -0.89046
-1.33848 -1.24208 1.61439 125 120 103 -0.052195 -0.408191 -0.911403
-1.33547 -1.24208 1.61412 121 118 102 -0.079749 -0.382526 -0.920496
-1.32039 -1.20891 1.61555 85 104 111 0.195586 0.883813 -0.424995
-1.3626 -1.21796 1.61411 78 92 94 -0.37962 0.327364 -0.865287
-1.33245 -1.24509 1.61597 131 123 103 0.105868 -0.45876 -0.882231
-1.38069 -1.22097 1.61694 70 91 98 0.000978 0.000978 -0.999999
-1.32944 -1.24509 1.61626 133 125 103 -0.076639 -0.646373 -0.759163
-1.31436 -1.21494 1.61471 81 96 99 0.451264 0.142732 -0.880902
-1.31134 -1.21494 1.61635 81 96 99 0.428024 0.092808 -0.898989
-1.36562 -1.21494 1.6165 65 90 99 -0.315201 0.297443 -0.901208
-1.32039 -1.24811 1.61637 137 129 109 -0.25201 -0.571327 -0.781074
-1.3626 -1.21494 1.61553 74 91 97 -0.30412 0.395814 -0.866512
-1.31738 -1.24811 1.61553 137 129 109 -0.178463 -0.467544 -0.865768
-1.35959 -1.21494 1.61432 74 91 97 -0.229212 0.524571 -0.819931
-1.32642 -1.24509 1.61572 131 124 106 -0.172304 -0.654144 -0.736483
-1.3626 -1.21193 1.61692 74 91 97 -0.194566 0.511302 -0.837087
-1.32341 -1.24509 1.61483 131 124 106 -0.203048 -0.652542 -0.730041
-1.35959 -1.21193 1.61669 74 91 97 -0.222208 0.595143 -0.772288
-1.32039 -1.24509 1.61411 142 133 111 -0.153349 -0.555333 -0.817367
-1.31738 -1.24509 1.61428 148 137 112 -0.027811 -0.41982 -0.907181
-1.35657 -1.21193 1.61528 77 100 107 -0.229952 0.621026 -0.749299
-1.31436 -1.25112 1.61668 143 132 109 -0.096438 -0.539764 -0.836274
-1.31134 -1.25112 1.61655 138 128 108 0.037837 -0.587167 -0.808581
-1.31436 -1.24811 1.61494 147 136 110 -0.157719 -0.49674 -0.853449
-1.31134 -1.24811 1.61443 143 132 109 -0.043583 -0.594696 -0.802769
-1.30833 -1.24811 1.61412 146 133 110 -0.001383 -0.687475 -0.726206
-1.35959 -1.24378 1.61697 97 82 72 -0.088188 -0.594187 -0.799478
-1.36493 -1.24208 1.61697 97 82 72 -0.225035 -0.578883 -0.783743
-1.35356 -1.24376 1.61697 97 82 72 -0.009603 -0.577572 -0.816283
-1.37165 -1.23757 1.61697 97 82 72 -0.392355 -0.503061 -0.770057
-1.36562 -1.24175 1.61697 97 82 72 -0.356391 -0.520879 -0.775674
-1.35959 -1.24208 1.61563 97 82 72 -0.141329 -0.584654 -0.798878
-1.35356 -1.24208 1.61548 97 82 72 -0.041017 -0.649195 -0.759515
-1.35959 -1.23605 1.61133 97 82 72 -0.231101 -0.559915 -0.795668
-1.35356 -1.20765 1.61999 63 87 95 -0.084991 0.813892 -0.574766
-1.30532 -1.252 1.61999 126 121 106 0.1962 -0.733819 -0.650396
-1.35054 -1.20744 1.61999 63 87 95 -0.001364 0.808912 -0.587928
-1.3023 -1.25135 1.61999 126 121 106 0.189081 -0.751711 -0.631806
-1.34753 -1.20742 1.61999 63 87 95 0.001359 0.827633 -0.561268
-1.30186 -1.25112 1.61999 126 121 106 0.304041 -0.632213 -0.712647
-1.29929 -1.24958 1.61999 126 121 106 0.37287 -0.545464 -0.750624
-1.34451 -1.20741 1.61999 63 87 95 -0.075943 0.80671 -0.586047
-1.29636 -1.24811 1.61999 125 118 101 0.293502 -0.419508 -0.858993
-1.3415 -1.20685 1.61999 63 87 95 -0.135337 0.795663 -0.590427
-1.29639 -1.24509 1.61999 131 124 107 0.330275 -0.114585 -0.936904
-1.3352 -1.20589 1.61999 64 86 95 -0.457362 0.60144 -0.65505
-1.37768 -1.23736 1.61999 88 97 94 -0.403246 -0.435377 -0.804885
-1.33265 -1.20288 1.61999 58 86 100 -0.398498 0.626684 -0.669676
-1.33245 -1.20282 1.61999 58 86 100 -0.104985 0.84995 -0.516298
-1.37895 -1.23605 1.61999 88 97 94 -0.365888 -0.37523 -0.851662
-1.38672 -1.23065 1.61999 86 97 94 -0.194178 -0.50426 -0.841437
-1.3887 -1.23002 1.61999 86 97 94 -0.12131 -0.458125 -0.880571
-1.33305 -1.25414 1.61999 127 113 94 -0.120258 -0.440002 -0.889908
-1.38371 -1.23202 1.61999 86 97 94 -0.234517 -0.41974 -0.876824
-1.32341 -1.20653 1.61999 73 97 107 0.1402 0.824966 -0.547518
-1.38069 -1.23468 1.61999 96 103 98 -0.354961 -0.42753 -0.831397
-1.38238 -1.23303 1.61999 96 103 98 -0.37268 -0.37268 -0.849835
-1.32446 -1.20589 1.61999 73 97 107 0.420081 0.609366 -0.672462
-1.39275 -1.22914 1.61999 68 91 100 -0.172036 -0.373929 -0.911362
-1.32039 -1.20669 1.61999 73 94 105 0.084546 0.823966 -0.560297
-1.39528 -1.227 1.61999 68 91 100 -0.230159 -0.103 -0.967687
-1.38974 -1.22977 1.61999 68 91 100 -0.104527 -0.4195 -0.901717
-1.31738 -1.25461 1.61999 103 91 76 0.001311 -0.449834 -0.893111
-1.31938 -1.25414 1.61999 103 91 76 -0.150979 -0.49691 -0.854568
-1.39558 -1.22399 1.61999 68 91 100 -0.091302 -0.013964 -0.995725
-1.31476 -1.25414 1.61999 126 115 100 0.100885 -0.618472 -0.779304
-1.39577 -1.22359 1.61999 67 91 100 -0.110889 -0.02086 -0.993614
-1.39636 -1.22097 1.61999 67 91 100 -0.226745 0.003525 -0.973948
-1.32341 -1.25286 1.61999 133 122 101 0.049537 -0.413698 -0.909065
-1.39577 -1.21906 1.61999 67 91 100 -0.131882 0.073527 -0.988535
-1.32039 -1.25374 1.61999 133 123 102 -0.163399 -0.481364 -0.861156
-1.38974 -1.22331 1.61999 63 90 100 0.096523 0.443446 -0.891089
-1.39224 -1.22097 1.61999 63 90 100 0.302794 0.076673 -0.949967
-1.31436 -1.25402 1.61999 147 134 110 0.085017 -0.805496 -0.586471
-1.31134 -1.25337 1.61999 147 134 110 0.146451 -0.826928 -0.542902
-1.39275 -1.21844 1.61999 63 90 100 0.108198 0.064919 -0.992007
-1.30833 -1.25287 1.61999 144 132 110 0.180754 -0.797446 -0.57568
-1.38672 -1.2231 1.61999 66 92 103 -0.282624 0.498105 -0.819765
-1.38513 -1.22097 1.61999 66 92 103 -0.578477 0.227979 -0.783192
-1.38446 -1.21796 1.61999 66 92 103 -0.530352 0.031683 -0.847185
-1.38409 -1.21494 1.61999 66 90 99 -0.288159 -0.057124 -0.955877
-1.38371 -1.21433 1.61999 66 90 99 -0.171933 0.161744 -0.97174
-1.31738 -1.20715 1.61999 77 97 106 0.109125 0.819163 -0.563084
-1.38127 -1.21193 1.61999 64 90 99 -0.149733 0.320071 -0.935486
-1.31436 -1.20734 1.61999 80 95 101 0.070957 0.716814 -0.693644
-1.31134 -1.20765 1.61999 80 95 101 0.049635 0.611218 -0.789904
-1.30029 -1.23002 1.61999 103 109 108 0.675721 0.315985 -0.665999
-1.30163 -1.227 1.61999 103 109 108 0.710196 0.286964 -0.642864
-1.3023 -1.22589 1.61999 99 108 107 0.603935 0.580251 -0.546417
-1.30385 -1.22399 1.61999 99 108 107 0.74499 0.302803 -0.59439
-1.3053 -1.22097 1.61999 94 104 105 0.576928 0.125419 -0.807109
-1.30475 -1.21796 1.61999 94 104 105 0.430115 -0.215802 -0.876602
-1.3023 -1.21506 1.61999 84 99 104 0.341962 -0.297164 -0.891491
-1.30206 -1.21494 1.61999 84 99 104 0.515283 -0.004036 -0.857011
-1.30144 -1.21193 1.61999 84 99 104 0.710044 0.237731 -0.662813
-1.30532 -1.20904 1.61999 84 99 104 0.213425 0.401827 -0.890497
-1.3023 -1.21101 1.61999 84 99 104 0.361106 0.48308 -0.797644
-1.32642 -1.20336 1.61999 62 86 97 0.498545 0.416816 -0.760077
-1.3271 -1.20288 1.61999 62 86 97 0.17909 0.662787 -0.727076
-1.29627 -1.24476 1.61999 130 127 113 0.617417 -0.094875 -0.780894
-1.2961 -1.24208 1.61999 126 122 107 0.708486 -0.001381 -0.705724
-1.29627 -1.23975 1.61999 129 127 113 0.719505 0.073833 -0.690551
-1.29636 -1.23906 1.61999 129 127 113 0.766068 0.107338 -0.633734
-1.29699 -1.23605 1.61999 118 119 109 0.767538 0.246428 -0.591742
-1.29929 -1.23152 1.61999 103 108 106 0.631823 0.523992 -0.571168
-1.29832 -1.23303 1.61999 104 111 108 0.714095 0.361133 -0.599709
-1.36562 -1.20863 1.61999 74 98 112 0.061756 0.676448 -0.733896
-1.3626 -1.20858 1.61999 74 98 112 0.015204 0.803048 -0.595721
-1.35959 -1.20875 1.61999 74 98 112 -0.02926 0.80116 -0.597735
-1.35657 -1.20808 1.61999 68 96 110 -0.187966 0.774788 -0.603632
-1.30532 -1.25112 1.61848 126 121 106 0.307911 -0.773767 -0.553602
-1.35356 -1.20891 1.61725 63 87 95 -0.085879 0.871459 -0.482892
-1.3023 -1.25112 1.61976 126 121 106 0.32763 -0.56972 -0.753709
-1.35054 -1.20891 1.61748 63 87 95 0.009478 0.851667 -0.523998
-1.34753 -1.20891 1.61748 63 87 95 0.014935 0.854025 -0.520018
-1.37768 -1.23605 1.61935 88 97 94 -0.424506 -0.318768 -0.847456
-1.38672 -1.23002 1.61958 86 97 94 -0.04194 -0.311371 -0.949363
-1.34451 -1.20891 1.61766 63 87 95 -0.043299 0.831055 -0.554502
-1.38371 -1.23002 1.61928 86 97 94 -0.166034 -0.235104 -0.957684
-1.38069 -1.23303 1.61923 96 103 98 -0.314418 -0.276395 -0.908156
-1.37768 -1.23303 1.61836 96 103 98 -0.335134 -0.203932 -0.919835
-1.3415 -1.20891 1.61728 63 87 95 -0.091424 0.7996 -0.593533
-1.38069 -1.23002 1.61857 96 103 98 -0.204199 -0.103979 -0.973392
-1.37768 -1.23002 1.61812 96 103 98 -0.262949 -0.035801 -0.964145
-1.33245 -1.20589 1.61812 64 86 95 -0.229548 0.607443 -0.760474
-1.32944 -1.20589 1.618 64 86 95 0.107829 0.51614 -0.84969
-1.39275 -1.227 1.61921 68 91 100 -0.182296 -0.132008 -0.974342
-1.33245 -1.20288 1.61989 58 86 100 -0.297357 0.505035 -0.810258
-1.32944 -1.20288 1.61956 64 89 101 -0.00134 0.507781 -0.861485
-1.38974 -1.227 1.6188 68 91 100 -0.108595 -0.045901 -0.993026
-1.39275 -1.22399 1.61974 68 91 100 -0.075719 0.126976 -0.989012
-1.30532 -1.22399 1.61844 98 107 106 0.680133 0.395503 -0.617249
-1.38974 -1.22399 1.61963 68 91 100 -0.079318 0.300369 -0.950519
-1.39577 -1.22097 1.61991 67 91 100 -0.050193 0.001024 -0.998739
-1.30532 -1.22097 1.61997 100 107 106 0.702812 0.183008 -0.687433
-1.30833 -1.21796 1.61728 98 107 106 0.575088 0.094158 -0.812655
-1.39275 -1.22097 1.61981 63 90 100 -0.009096 0.027289 -0.999586
-1.30532 -1.21796 1.61962 97 107 106 0.592154 -0.037797 -0.804938
-1.38672 -1.227 1.61843 74 93 95 -0.066016 -0.046536 -0.996733
-1.38371 -1.227 1.61889 75 93 96 -0.012182 -0.131791 -0.991203
-1.32642 -1.20589 1.61879 76 98 108 0.284397 0.570383 -0.770573
-1.38672 -1.22399 1.61934 74 93 96 -0.156797 0.374334 -0.913941
-1.38371 -1.22399 1.61853 74 93 98 -0.141493 0.091554 -0.985696
-1.31134 -1.21193 1.6173 80 95 101 0.28578 0.48567 -0.826108
-1.38069 -1.227 1.61882 86 99 98 -0.131613 -0.051501 -0.989962
-1.34753 -1.24509 1.61794 117 106 90 -0.064617 -0.452318 -0.889513
-1.30833 -1.21494 1.61763 88 100 102 0.449171 0.058706 -0.891515
-1.37768 -1.227 1.6181 93 103 99 -0.25244 -0.015702 -0.967485
-1.34451 -1.24509 1.61727 117 106 90 -0.199474 -0.326797 -0.923804
-1.30532 -1.21494 1.61893 88 100 102 0.347721 -0.061671 -0.935567
-1.38069 -1.22399 1.61848 81 96 98 -0.208505 -0.216576 -0.95374
-1.37768 -1.22399 1.61772 84 96 97 -0.209259 -0.175041 -0.962066
-1.38371 -1.22097 1.61891 66 92 103 -0.460247 0.050532 -0.886352
-1.30833 -1.21193 1.61821 88 100 102 0.258187 0.298574 -0.9188
-1.38371 -1.21796 1.61948 66 92 103 -0.499657 0.138389 -0.855097
-1.37768 -1.22097 1.61701 72 91 97 0.001044 -0.072063 -0.9974
-1.30532 -1.21193 1.61899 88 100 102 0.257539 0.124194 -0.958253
-1.38069 -1.21796 1.61792 72 91 97 -0.334098 0.249479 -0.908922
-1.31436 -1.20891 1.61824 80 95 101 0.1886 0.7682 -0.6118
-1.37768 -1.21796 1.61728 72 91 97 -0.105223 0.268904 -0.957402
-1.31134 -1.20891 1.61917 80 95 101 0.189034 0.533833 -0.82419
-1.38371 -1.21494 1.61989 66 90 99 -0.371312 0.203716 -0.905885
-1.3023 -1.23002 1.61841 104 111 110 0.627328 0.417664 -0.65728
-1.38069 -1.21494 1.61905 64 90 99 -0.181851 0.306787 -0.934244
-1.3023 -1.227 1.61925 104 111 110 0.696574 0.26181 -0.668012
-1.37768 -1.21494 1.61867 64 90 99 -0.181322 0.330316 -0.92629
-1.38069 -1.21193 1.61987 64 90 99 -0.144446 0.33429 -0.931335
-1.3023 -1.21494 1.61994 84 99 104 0.277003 -0.036023 -0.960194
-1.37768 -1.21193 1.61943 64 90 99 -0.152417 0.319938 -0.935098
-1.3023 -1.21193 1.61973 84 99 104 0.237175 0.128308 -0.962956
-1.3023 -1.24811 1.61754 126 121 106 0.431004 -0.580774 -0.690606
-1.29929 -1.24811 1.61937 126 121 106 0.441986 -0.239849 -0.864362
-1.37466 -1.23605 1.61784 97 82 72 -0.401279 -0.420463 -0.813748
-1.37466 -1.23303 1.61704 97 82 72 -0.411784 -0.162131 -0.896743
-1.29929 -1.24509 1.61863 134 128 111 0.548717 -0.240938 -0.800536
-1.29929 -1.24208 1.61715 135 128 111 0.63132 -0.286092 -0.720824
-1.29627 -1.24208 1.61982 130 127 113 0.613609 -0.13586 -0.777835
-1.29929 -1.23303 1.61834 107 111 107 0.749197 0.373783 -0.5468
-1.33848 -1.24811 1.61744 109 83 68 -0.167791 -0.359552 -0.917915
-1.33245 -1.25112 1.61804 127 113 94 0.034113 -0.498053 -0.866475
-1.37466 -1.227 1.61725 91 101 99 -0.243361 -0.013187 -0.969846
-1.32944 -1.25112 1.61876 127 113 94 0.094228 -0.325154 -0.940955
-1.37466 -1.22399 1.61713 88 99 99 -0.178577 -0.083822 -0.980349
-1.32944 -1.24811 1.61779 127 114 95 0.132933 -0.34124 -0.930529
-1.37466 -1.21796 1.61751 77 93 97 -0.059466 0.205095 -0.976934
-1.37466 -1.21494 1.61786 68 91 98 -0.157314 0.267569 -0.95061
-1.31738 -1.25414 1.61975 103 91 76 -0.035203 -0.64352 -0.76462
-1.37165 -1.21494 1.61755 68 91 98 -0.115782 0.302098 -0.946219
-1.37466 -1.21193 1.61895 68 91 98 -0.117991 0.392842 -0.912005
-1.37165 -1.21193 1.6184 68 91 98 -0.126038 0.375344 -0.918276
-1.32642 -1.25112 1.6188 111 93 79 0.081152 -0.344565 -0.935248
-1.32341 -1.25112 1.61906 133 122 101 -0.099901 -0.460108 -0.882225
-1.36863 -1.21494 1.61713 68 91 98 -0.121641 0.303434 -0.945056
-1.32642 -1.24811 1.61769 142 132 109 -0.014289 -0.401391 -0.915795
-1.36863 -1.21193 1.61809 68 91 98 -0.081719 0.447379 -0.890603
-1.32341 -1.24811 1.61749 143 135 112 -0.13795 -0.489361 -0.861101
-1.36562 -1.21193 1.61758 68 91 98 -0.13397 0.552076 -0.822961
-1.32039 -1.25112 1.61836 133 123 102 -0.246121 -0.518557 -0.818855
-1.31738 -1.25112 1.61727 133 123 102 -0.211401 -0.581738 -0.785424
-1.36562 -1.20891 1.6197 74 98 112 -0.106762 0.586461 -0.802911
-1.3626 -1.20891 1.61948 74 98 112 -0.055902 0.672263 -0.738199
-1.35959 -1.20891 1.61971 74 98 112 -0.117248 0.749497 -0.651543
-1.30833 -1.25112 1.6171 144 132 110 0.230792 -0.832992 -0.502852
-1.35657 -1.20891 1.61896 71 99 110 -0.245971 0.766112 -0.593776
-1.30217 -1.25414 1.62301 126 121 106 0.315145 -0.693319 -0.648068
-1.29929 -1.25305 1.62301 126 121 106 0.376115 -0.698029 -0.609338
-1.3415 -1.20433 1.62301 57 87 101 -0.179181 0.672312 -0.718256
-1.31134 -1.20418 1.62301 65 85 95 0.015369 0.716736 -0.697176
-1.33909 -1.20288 1.62301 57 87 101 -0.354468 0.619093 -0.700768
-1.30833 -1.20468 1.62301 65 85 95 0.26484 0.743771 -0.61373
-1.3054 -1.20589 1.62301 65 85 95 0.323105 0.686801 -0.651081
-1.33848 -1.20262 1.62301 57 87 101 -0.227112 0.725193 -0.650011
-1.33547 -1.20175 1.62301 57 87 101 -0.189482 0.731741 -0.654715
-1.39878 -1.234 1.62301 73 92 97 -0.022467 -0.424225 -0.905278
-1.33245 -1.20105 1.62301 58 86 100 -0.163484 0.808421 -0.565445
-1.32944 -1.20063 1.62301 58 86 100 0.023206 0.850443 -0.525555
-1.3023 -1.22424 1.62301 100 108 107 0.324944 0.72587 -0.606238
-1.29658 -1.25112 1.62301 125 118 101 0.477724 -0.585002 -0.655403
-1.30238 -1.22399 1.62301 100 108 107 0.858576 0.309827 -0.408479
-1.29627 -1.25088 1.62301 125 118 101 0.514819 -0.622846 -0.589088
-1.29929 -1.22538 1.62301 97 106 105 0.691818 0.461767 -0.555121
-1.29402 -1.24811 1.62301 125 118 101 0.725203 -0.321415 -0.608912
-1.4009 -1.23303 1.62301 73 92 97 -0.193851 -0.329688 -0.923974
-1.29808 -1.23002 1.62301 98 108 106 0.748968 0.498764 -0.436212
-1.29364 -1.24509 1.62301 123 119 104 0.735833 -0.133379 -0.663898
-1.39577 -1.23379 1.62301 73 92 97 0.028796 -0.527929 -0.8488
-1.29325 -1.24409 1.62301 120 118 107 0.635109 -0.189149 -0.748906
-1.2991 -1.227 1.62301 98 108 106 0.922523 0.259684 -0.285509
-1.29284 -1.24208 1.62301 115 115 103 0.452981 -0.001313 -0.891519
-1.29325 -1.24063 1.62301 115 115 108 0.618395 0.198935 -0.760271
-1.29382 -1.23906 1.62301 115 115 108 0.742891 0.110769 -0.660184
-1.29395 -1.23605 1.62301 103 110 103 0.721254 0.22373 -0.655544
-1.3023 -1.2219 1.62301 94 106 107 0.52073 -0.320082 -0.791446
-1.4018 -1.23213 1.62301 73 92 97 -0.325029 -0.241244 -0.914416
-1.29541 -1.23303 1.62301 104 111 108 0.710268 0.477393 -0.517315
-1.29929 -1.22194 1.62301 94 104 105 0.582607 -0.382387 -0.717181
-1.39275 -1.23359 1.62301 70 90 96 -0.066541 -0.547904 -0.83389
-1.29627 -1.23184 1.62301 104 111 108 0.642136 0.57472 -0.507304
-1.38974 -1.23454 1.62301 70 90 96 -0.137805 -0.573448 -0.807569
-1.38371 -1.23694 1.62301 88 97 94 -0.344567 -0.548395 -0.761929
-1.29918 -1.22097 1.62301 94 105 106 0.981904 -0.095648 -0.163449
-1.38531 -1.23605 1.62301 88 97 94 -0.288105 -0.524257 -0.801342
-1.2989 -1.21796 1.62301 94 105 106 0.965809 -0.159885 -0.204081
-1.31436 -1.2582 1.62301 126 115 100 0.271518 -0.53205 -0.801998
-1.36562 -1.20613 1.62301 74 98 112 0.082422 0.782286 -0.617442
-1.31237 -1.25715 1.62301 126 115 100 0.285683 -0.541377 -0.790757
-1.3626 -1.2063 1.62301 74 98 112 0.029308 0.802494 -0.595939
-1.29778 -1.21494 1.62301 90 101 106 0.98964 0.096749 -0.106075
-1.31134 -1.25655 1.62301 128 117 101 0.155423 -0.632256 -0.759009
-1.35959 -1.20644 1.62301 74 98 112 -0.100571 0.794367 -0.599055
-1.29927 -1.21193 1.62301 90 101 106 0.897781 0.440346 -0.009201
-1.29929 -1.21187 1.62301 84 99 104 0.9173 0.336296 -0.213226
-1.30833 -1.25585 1.62301 142 130 110 0.13656 -0.658792 -0.739828
-1.30104 -1.20891 1.62301 84 99 104 0.719334 0.523303 -0.456852
-1.30532 -1.25528 1.62301 132 124 106 0.209926 -0.65466 -0.72619
-1.3576 -1.20589 1.62301 65 93 110 -0.229145 0.851327 -0.471948
-1.30532 -1.20594 1.62301 84 99 104 0.410472 0.646451 -0.643128
-1.3023 -1.20786 1.62301 84 99 104 0.505928 0.754798 -0.417513
-1.37768 -1.24116 1.62301 88 97 94 -0.395841 -0.637652 -0.66084
-1.3023 -1.25419 1.62301 112 104 91 0.244283 -0.67296 -0.698176
-1.38057 -1.23906 1.62301 88 97 94 -0.45517 -0.568546 -0.685256
-1.38069 -1.23896 1.62301 88 97 94 -0.370061 -0.546125 -0.751533
-1.38672 -1.23539 1.62301 86 97 94 -0.175594 -0.538787 -0.823939
-1.32642 -1.20105 1.62301 61 86 100 0.242857 0.812103 -0.530574
-1.32341 -1.20227 1.62301 61 86 99 0.263983 0.75085 -0.605423
-1.32039 -1.20369 1.62301 60 85 98 0.217043 0.679234 -0.701095
-1.32219 -1.20288 1.62301 60 85 98 0.268808 0.660089 -0.701445
-1.31738 -1.20446 1.62301 60 85 98 0.073808 0.727953 -0.681642
-1.31436 -1.20444 1.62301 65 85 95 -0.049831 0.750317 -0.659197
-1.30532 -1.25414 1.62196 126 121 106 0.199408 -0.669331 -0.715705
-1.35356 -1.20589 1.62153 63 87 95 -0.092213 0.712821 -0.695257
-1.3023 -1.25414 1.62296 126 121 106 0.199511 -0.688236 -0.697515
-1.35054 -1.20589 1.62167 63 87 95 0.043993 0.745039 -0.665568
