ply
format ascii 1.0
element vertex 741
property float x
property float y
property float z
property uchar red
property uchar green
property uchar blue
property float nx
property float ny
property float nz
end_header
-1.05807 0.880573 1.64709 31 69 97 -0.110436 0.304697 -0.946025
-1.07013 0.862483 1.64451 61 95 117 -0.330794 0.219097 -0.917917
-1.07013 0.868513 1.64643 61 95 117 -0.331865 0.278766 -0.901197
-1.08521 0.836428 1.65014 42 77 102 -0.118622 -0.220663 -0.96811
-1.08652 0.838362 1.65014 42 77 102 -0.361422 -0.189996 -0.912839
-1.08256 0.838362 1.65014 51 85 108 0.030896 -0.154478 -0.987513
-1.07616 0.834353 1.65014 82 105 119 0.015338 -0.71809 -0.695781
-1.0788 0.835347 1.65014 82 105 119 -0.25167 -0.564303 -0.786273
-1.07918 0.835904 1.65014 81 104 119 -0.221591 -0.218872 -0.950259
-1.08181 0.838362 1.65014 81 104 119 -0.182732 -0.228081 -0.956341
-1.08736 0.841377 1.65014 43 75 100 -0.195169 0.022205 -0.980518
-1.0822 0.838405 1.65014 62 92 112 0.001215 -0.285453 -0.958392
-1.08549 0.844392 1.65014 62 93 114 -0.342142 0.083871 -0.935898
-1.07315 0.834993 1.65014 86 109 124 0.032367 -0.769776 -0.637493
-1.07013 0.834719 1.65014 82 109 125 -0.073931 -0.734956 -0.674072
-1.06744 0.835347 1.65014 75 104 122 0.252789 -0.576233 -0.777208
-1.05807 0.83706 1.65014 63 98 125 -0.195659 -0.532374 -0.823587
-1.06712 0.835606 1.65014 79 107 124 0.542776 -0.505807 -0.670488
-1.06457 0.838362 1.65014 75 104 122 0.507737 -0.592079 -0.625816
-1.02952 0.880573 1.65014 30 69 95 0.593246 0.292626 -0.749953
-1.03037 0.883588 1.65014 30 69 95 0.704341 0.244234 -0.666524
-1.06411 0.838634 1.65014 70 97 117 0.190829 -0.786214 -0.587752
-1.03094 0.884683 1.65014 30 70 97 0.620681 0.395581 -0.676957
-1.03209 0.886604 1.65014 30 70 97 0.591274 0.232453 -0.772244
-1.05913 0.838362 1.65014 61 94 120 -0.416008 -0.575119 -0.704397
-1.03697 0.892172 1.65014 29 65 91 0.200003 0.361156 -0.910805
-1.03806 0.892634 1.65014 29 65 91 0.080455 0.40773 -0.909551
-1.05506 0.836816 1.65014 63 98 125 -0.064799 -0.712784 -0.698384
-1.02491 0.850603 1.65014 67 99 123 0.395893 -0.650988 -0.647675
-1.03395 0.890596 1.65014 29 65 91 0.456966 0.34312 -0.820641
-1.05204 0.836749 1.65014 69 109 137 0.346407 -0.723713 -0.59686
-1.02189 0.852526 1.65014 71 103 124 0.376037 -0.717591 -0.586224
-1.03312 0.889619 1.65014 31 67 91 0.553417 0.258679 -0.791716
-1.02042 0.853437 1.65014 59 92 114 0.405219 -0.580538 -0.706239
-1.06109 0.839517 1.65014 61 101 126 -0.085464 -0.792355 -0.604044
-1.01888 0.854614 1.65014 52 87 110 0.433843 -0.513023 -0.740667
-1.01683 0.856452 1.65014 49 85 107 0.437753 -0.486938 -0.75582
-1.04905 0.838362 1.65014 72 111 138 0.424162 -0.734444 -0.52979
-1.04903 0.838384 1.65014 72 111 136 0.584653 -0.700589 -0.409091
-1.01586 0.857221 1.65014 45 78 98 0.491882 -0.375766 -0.785399
-1.01586 0.86228 1.65014 45 80 102 0.392127 0.235276 -0.889315
-1.04601 0.840992 1.65014 69 107 131 0.665379 -0.746285 -0.018134
-1.01642 0.862483 1.65014 45 80 102 0.36338 0.388334 -0.846848
-1.01888 0.864344 1.65014 38 77 101 0.485911 0.449674 -0.749456
-1.04564 0.841377 1.65014 74 108 131 0.909353 -0.412365 -0.055072
-1.01978 0.865498 1.65014 38 77 101 0.552681 0.366824 -0.748321
-1.02171 0.868513 1.65014 38 77 101 0.51873 0.345285 -0.782111
-1.04448 0.844392 1.65014 72 110 135 0.779086 -0.564166 -0.273391
-1.01461 0.859467 1.65014 45 82 105 0.542954 -0.087388 -0.835203
-1.02792 0.878939 1.65014 28 69 98 0.562646 0.436507 -0.702062
-1.08572 0.847407 1.65014 67 98 121 -0.39122 -0.123909 -0.911918
-1.02189 0.868734 1.65014 32 71 99 0.509581 0.367222 -0.778123
-1.02348 0.871528 1.65014 32 71 99 0.642391 0.39138 -0.658905
-1.0869 0.850422 1.65014 67 98 121 -0.312831 -0.14617 -0.938494
-1.02491 0.874497 1.65014 32 71 99 0.61014 0.361504 -0.705014
-1.02496 0.874543 1.65014 32 71 99 0.533151 0.295843 -0.792607
-1.08795 0.853437 1.65014 58 93 117 -0.426912 0.041487 -0.903341
-1.02685 0.877558 1.65014 32 67 91 0.623062 0.420359 -0.659615
-1.08709 0.856452 1.65014 58 93 117 -0.327768 0.117349 -0.937442
-1.08601 0.859467 1.65014 61 95 117 -0.256414 0.220377 -0.941109
-1.08521 0.85995 1.65014 61 95 117 -0.278536 0.261396 -0.92417
-1.08305 0.862483 1.65014 61 95 117 -0.331014 0.255187 -0.908465
-1.043 0.845449 1.65014 71 110 135 0.442838 -0.800328 -0.40419
-1.03998 0.846535 1.65014 79 109 128 0.450661 -0.882724 -0.133052
-1.03813 0.847407 1.65014 85 113 129 0.426568 -0.878404 -0.215514
-1.03697 0.847948 1.65014 73 111 135 0.254211 -0.966493 -0.035614
-1.03395 0.848837 1.65014 91 116 129 0.257681 -0.964746 -0.053528
-1.03094 0.849481 1.65014 89 117 135 0.127003 -0.974527 -0.184846
-1.08521 0.838362 1.64982 42 77 102 -0.042209 -0.068184 -0.99678
-1.07616 0.835347 1.64924 82 105 119 -0.175513 -0.378138 -0.908959
-1.07918 0.838362 1.64947 81 104 119 -0.290544 -0.270307 -0.917888
-1.07616 0.838362 1.64823 71 96 113 -0.267053 -0.319587 -0.909146
-1.08521 0.841377 1.64977 43 75 100 -0.119179 -0.030073 -0.992417
-1.0822 0.841377 1.64926 62 92 112 -0.211545 -0.096384 -0.972604
-1.08521 0.844392 1.65001 62 93 114 -0.178186 -0.001135 -0.983996
-1.0822 0.844392 1.64961 69 99 120 -0.27841 -0.015944 -0.96033
-1.07918 0.841377 1.64864 72 102 121 -0.306597 -0.21052 -0.928267
-1.05807 0.838362 1.64931 63 98 125 -0.19962 -0.651473 -0.731939
-1.05506 0.838362 1.64853 63 98 125 -0.049867 -0.668211 -0.742299
-1.07616 0.841377 1.64773 76 103 122 -0.355159 -0.235311 -0.904705
-1.07918 0.844392 1.64826 72 102 121 -0.390221 -0.063025 -0.918562
-1.03094 0.850422 1.648 77 109 132 0.229488 -0.871454 -0.433477
-1.05204 0.838362 1.64884 69 109 137 0.235832 -0.528695 -0.815393
-1.02792 0.850422 1.64945 78 110 132 0.293289 -0.633056 -0.716395
-1.07315 0.835347 1.6496 86 109 124 -0.123448 -0.638063 -0.760024
-1.03697 0.883588 1.64716 29 65 91 0.292151 0.306832 -0.905815
-1.05204 0.841377 1.64732 63 103 133 0.262963 -0.309453 -0.913832
-1.03395 0.880573 1.64762 29 65 91 0.498492 0.210609 -0.840922
-1.02491 0.853437 1.64799 67 99 123 0.287593 -0.517038 -0.806202
-1.07013 0.835347 1.64888 82 109 125 0.209671 -0.709775 -0.672501
-1.02189 0.853437 1.64933 71 103 124 0.360706 -0.519222 -0.77479
-1.04903 0.841377 1.64813 72 111 136 0.295808 -0.441389 -0.847156
-1.02189 0.856452 1.64739 54 88 111 0.343746 -0.50043 -0.794612
-1.06712 0.838362 1.64796 79 107 124 0.428198 -0.604809 -0.671455
-1.04601 0.841377 1.64971 69 107 131 0.499481 -0.519527 -0.69326
-1.03395 0.883588 1.64813 29 65 91 0.3949 0.232207 -0.888895
-1.01888 0.856452 1.64902 52 87 110 0.429415 -0.439138 -0.789152
-1.03998 0.886604 1.6498 29 65 91 -0.001296 0.418483 -0.908224
-1.03697 0.886604 1.64817 29 65 91 0.039656 0.323644 -0.945348
-1.08521 0.847407 1.64985 67 98 121 -0.278044 -0.062211 -0.958552
-1.03395 0.886604 1.64894 29 65 91 0.359795 0.245248 -0.900223
-1.01888 0.859467 1.64754 45 81 103 0.486415 -0.050984 -0.872239
-1.0822 0.847407 1.64915 67 98 121 -0.285033 -0.109022 -0.952298
-1.08521 0.850422 1.64979 67 98 121 -0.274215 -0.175989 -0.945428
-1.01586 0.859467 1.64919 45 78 98 0.489354 -0.028467 -0.87162
-1.01888 0.862483 1.64866 45 80 102 0.525924 0.364101 -0.768658
-1.0822 0.850422 1.64877 67 98 121 -0.244832 -0.090068 -0.965373
-1.02189 0.865498 1.64781 42 80 104 0.581852 0.481244 -0.655632
-1.02491 0.868513 1.6475 42 80 104 0.587774 0.353316 -0.727798
-1.07918 0.847407 1.64803 62 95 117 -0.363847 -0.029781 -0.930982
-1.03094 0.880573 1.64922 28 66 94 0.459786 0.315416 -0.830126
-1.02189 0.868513 1.65004 42 80 104 0.541556 0.468238 -0.698191
-1.07918 0.850422 1.64801 62 95 117 -0.286889 -0.028565 -0.957538
-1.03094 0.883588 1.64961 28 66 94 0.493293 0.180327 -0.850967
-1.08521 0.853437 1.64873 58 93 117 -0.246666 -0.040497 -0.968254
-1.03998 0.889619 1.64938 29 65 91 -0.111891 0.104824 -0.988176
-1.0822 0.853437 1.64875 58 93 117 -0.206482 -0.024778 -0.978136
-1.03697 0.889619 1.64907 29 65 91 0.074522 0.317701 -0.945258
-1.08521 0.856452 1.64945 58 93 117 -0.308805 0.175867 -0.934725
-1.03395 0.889619 1.64985 29 65 91 0.238746 0.304509 -0.922103
-1.02792 0.874543 1.64897 28 69 98 0.488385 0.314526 -0.813974
-1.03998 0.892634 1.64986 29 65 91 0.054076 0.37062 -0.927209
-1.0822 0.856452 1.64871 58 93 117 -0.236439 0.0923 -0.967252
-1.03094 0.877558 1.64743 28 69 98 0.494414 0.384184 -0.779716
-1.02792 0.877558 1.6494 28 73 103 0.499443 0.214047 -0.839489
-1.08521 0.859467 1.65 61 95 117 -0.2757 0.16705 -0.946617
-1.02491 0.871528 1.649 32 71 99 0.509816 0.389284 -0.767167
-1.0822 0.859467 1.64916 61 95 117 -0.315418 0.143372 -0.93806
-1.0822 0.862483 1.64979 61 95 117 -0.376224 0.237538 -0.895562
-1.043 0.847407 1.64726 71 110 135 0.17352 -0.810263 -0.55979
-1.03998 0.847407 1.64814 79 109 128 0.291413 -0.80808 -0.511942
-1.043 0.880573 1.64743 30 72 100 0.014045 0.098317 -0.995056
-1.05204 0.883588 1.64727 28 64 92 -0.090157 0.299217 -0.949916
-1.04903 0.883588 1.64732 28 64 92 0.078855 0.293443 -0.952719
-1.04601 0.883588 1.64794 28 64 92 0.012648 0.182816 -0.983066
-1.05204 0.886604 1.64828 28 64 92 -0.060148 0.295621 -0.95341
-1.04903 0.886604 1.6483 28 64 92 -0.042667 0.232838 -0.971579
-1.04601 0.886604 1.6479 28 64 92 0.007972 0.17196 -0.985072
-1.043 0.883588 1.64759 28 67 95 -0.082377 0.117185 -0.989688
-1.043 0.886604 1.64819 28 66 95 0.134421 0.411752 -0.901327
-1.04601 0.889619 1.64862 28 59 83 -0.015853 0.271947 -0.962182
-1.043 0.889619 1.64936 28 59 83 0.142753 0.204484 -0.968405
-1.04601 0.892634 1.64971 28 59 83 0.009234 0.449831 -0.893066
-1.043 0.892634 1.6498 28 59 83 0.02274 0.461486 -0.886856
-1.09803 0.844392 1.65316 47 79 104 -0.595485 -0.125599 -0.793488
-1.09918 0.847407 1.65316 47 79 104 -0.598161 -0.161217 -0.784992
-1.09972 0.850422 1.65316 40 71 97 -0.495626 -0.017556 -0.868359
-1.09976 0.853437 1.65316 42 80 108 -0.365489 0.122749 -0.922687
-1.05807 0.832791 1.65316 66 104 131 0.020422 -0.515989 -0.856352
-1.09806 0.856452 1.65316 40 78 106 -0.297276 0.19958 -0.933699
-1.09426 0.856324 1.65316 42 80 108 -0.33693 0.246498 -0.90869
-1.05506 0.833757 1.65316 66 104 131 0.107137 -0.606131 -0.788116
-1.0948 0.856452 1.65316 42 80 108 0.039485 0.206995 -0.977545
-1.02792 0.849426 1.65316 91 116 133 0.038616 -0.998796 -0.030267
-1.05204 0.834162 1.65316 66 104 131 0.485696 -0.657119 -0.576449
-1.02491 0.849215 1.65316 91 116 133 0.044937 -0.972831 -0.227115
-1.09413 0.856452 1.65316 60 101 126 -0.401644 0.146181 -0.904054
-1.05063 0.835347 1.65316 71 109 132 0.790322 -0.484495 -0.375041
-1.02792 0.883971 1.65316 25 52 75 0.782522 0.522217 -0.33904
-1.04915 0.838362 1.65316 71 107 129 0.70938 -0.645327 -0.283432
-1.04903 0.838485 1.65316 69 107 131 0.658157 -0.752776 0.012523
-1.04601 0.841124 1.65316 68 104 127 0.689258 -0.721048 -0.070804
-1.02978 0.886604 1.65316 25 52 75 0.809173 0.298117 -0.506325
-1.04581 0.841377 1.65316 73 105 125 0.780894 -0.617417 -0.094875
-1.0304 0.889619 1.65316 30 67 91 0.833376 0.2613 -0.487038
-1.04308 0.844392 1.65316 79 108 127 0.720741 -0.661842 -0.206148
-1.043 0.844455 1.65316 77 109 131 0.509887 -0.847852 -0.145472
-1.08823 0.831227 1.65316 75 96 114 -0.405897 -0.377468 -0.832325
-1.03998 0.846794 1.65316 93 110 119 0.623857 -0.780873 0.032244
-1.08933 0.832331 1.65316 75 96 114 -0.364375 -0.370577 -0.854344
-1.03094 0.891595 1.65316 32 67 91 0.733447 0.29691 -0.611474
-1.03134 0.892634 1.65316 32 67 91 0.657236 0.427619 -0.620631
-1.039 0.847407 1.65316 89 115 129 0.484202 -0.866391 0.122128
-1.09124 0.834551 1.65316 55 89 113 -0.33576 -0.26245 -0.904646
-1.09177 0.835347 1.65316 55 89 113 -0.375499 -0.178469 -0.909478
-1.03697 0.848623 1.65316 100 115 120 0.306866 -0.949085 0.071214
-1.01509 0.868513 1.65316 35 70 94 0.345029 0.555611 -0.756473
-1.09303 0.838362 1.65316 57 90 113 -0.355099 -0.312789 -0.880947
-1.01586 0.869042 1.65316 35 70 94 0.376407 0.68871 -0.619675
-1.03094 0.84936 1.65316 89 117 135 0.108947 -0.993725 0.025311
-1.09727 0.839607 1.65316 64 96 117 -0.406243 -0.467746 -0.784972
-1.02189 0.850395 1.65316 91 115 132 0.333904 -0.849515 -0.408451
-1.09826 0.841377 1.65316 64 96 117 -0.713786 -0.179598 -0.676945
-1.02181 0.850422 1.65316 68 99 120 0.212813 -0.81604 -0.537392
-1.09426 0.83933 1.65316 67 97 118 -0.123509 -0.438671 -0.89012
-1.01888 0.851352 1.65316 70 100 121 0.311711 -0.67026 -0.67349
-1.09727 0.856956 1.65316 50 91 118 -0.03397 0.181565 -0.982792
-1.01586 0.853106 1.65316 63 97 120 0.232182 -0.584351 -0.777577
-1.09311 0.859467 1.65316 56 96 120 -0.384545 0.157507 -0.90957
-1.09145 0.862483 1.65316 55 94 118 -0.274189 0.143113 -0.950967
-1.09124 0.862776 1.65316 54 93 118 -0.315959 0.246708 -0.916136
-1.08948 0.865498 1.65316 54 93 118 -0.378995 0.285379 -0.880296
-1.01285 0.853434 1.65316 50 89 114 0.06752 -0.622042 -0.780067
-1.08823 0.866922 1.65316 54 93 118 -0.352355 0.361587 -0.863192
-1.01282 0.853437 1.65316 52 90 114 0.435849 -0.495058 -0.751634
-1.08521 0.828812 1.65316 65 94 116 0.001349 -0.842882 -0.538096
-1.0102 0.856452 1.65316 51 88 112 0.325128 -0.275109 -0.904769
-1.08665 0.829316 1.65316 65 94 116 -0.378852 -0.585499 -0.716703
-1.08276 0.829316 1.65316 65 95 117 0.101068 -0.616661 -0.780714
-1.0822 0.8298 1.65316 65 97 119 0.268018 -0.491108 -0.828842
-1.00983 0.856812 1.65316 47 85 108 0.408172 -0.122031 -0.904712
-1.07918 0.831523 1.65316 55 90 112 0.161984 -0.631283 -0.758448
-1.00915 0.859467 1.65316 43 81 103 0.596324 0.106957 -0.795587
-1.07616 0.831804 1.65316 60 88 108 0.067625 -0.651786 -0.755382
-1.00972 0.862483 1.65316 43 81 103 0.746835 0.20565 -0.632413
-1.0733 0.832331 1.65316 88 111 126 0.14578 -0.752946 -0.641732
-1.00983 0.862769 1.65316 40 78 103 0.613822 0.257206 -0.74637
-1.07013 0.832081 1.65316 88 111 126 -0.209693 -0.706744 -0.675678
-1.01143 0.865498 1.65316 40 78 103 0.467878 0.319795 -0.823906
-1.01285 0.867037 1.65316 40 78 103 0.340216 0.463643 -0.8181
-1.07106 0.832331 1.65316 88 111 126 -0.009724 -0.707073 -0.707073
-1.06712 0.831159 1.65316 91 114 128 -0.05585 -0.708861 -0.703133
-1.02189 0.873238 1.65316 32 71 99 0.558331 0.723031 -0.406808
-1.06492 0.832331 1.65316 90 113 128 0.370589 -0.443753 -0.815933
-1.02321 0.874543 1.65316 32 71 99 0.79037 0.438017 -0.428319
-1.01888 0.870908 1.65316 32 68 93 0.39132 0.635688 -0.665409
-1.07315 0.83236 1.65316 87 109 122 0.092018 -0.749293 -0.655814
-1.01991 0.871528 1.65316 32 68 93 0.513271 0.641168 -0.570488
-1.06411 0.834117 1.65316 73 103 122 0.39737 -0.293841 -0.869342
-1.02451 0.877558 1.65316 32 67 91 0.861266 0.374396 -0.343582
-1.02491 0.878462 1.65316 32 67 91 0.835081 0.50227 -0.224419
-1.06109 0.832976 1.65316 65 99 121 -0.076802 -0.305906 -0.948959
-1.09727 0.844392 1.6528 47 79 104 -0.369134 -0.059538 -0.927467
-1.09727 0.847407 1.6521 47 79 104 -0.354587 -0.131073 -0.92579
-1.09426 0.844392 1.65175 45 79 104 -0.241906 -0.08739 -0.966356
-1.05807 0.835347 1.65129 66 104 131 -0.058102 -0.576766 -0.814841
-1.09426 0.847407 1.65145 45 79 104 -0.11138 -0.003244 -0.993773
-1.05506 0.835347 1.65185 66 104 131 0.049856 -0.665216 -0.744985
-1.09727 0.850422 1.65181 40 71 97 -0.187247 0.071275 -0.979724
-1.05204 0.835347 1.65161 66 104 131 0.162569 -0.718647 -0.676105
-1.09426 0.850422 1.6518 48 85 110 -0.03489 0.124929 -0.991552
-1.06411 0.838362 1.65039 61 104 130 0.171391 -0.608211 -0.775052
-1.06109 0.838362 1.65091 61 104 130 -0.11626 -0.492311 -0.86262
-1.02491 0.850422 1.65037 91 116 133 0.335669 -0.855415 -0.39445
-1.09124 0.844392 1.65122 48 81 107 -0.092613 0.054675 -0.9942
-1.02189 0.850422 1.65312 91 115 132 0.459961 -0.722321 -0.516418
-1.09124 0.847407 1.65136 48 81 107 -0.094042 0.043149 -0.994633
-1.08823 0.844392 1.65124 57 93 116 -0.182153 0.149035 -0.97191
-1.01888 0.853437 1.65111 70 100 121 0.422936 -0.585476 -0.691624
-1.08823 0.847407 1.65126 57 93 116 -0.204961 -0.077321 -0.975711
-1.01586 0.853437 1.65292 63 97 120 0.348866 -0.469934 -0.810835
-1.09124 0.850422 1.65184 48 88 113 -0.267098 0.040997 -0.962797
-1.01586 0.856452 1.65077 55 88 112 0.424718 -0.537095 -0.728796
-1.08823 0.850422 1.65048 65 103 125 -0.306927 -0.093527 -0.947127
-1.08823 0.832331 1.65271 75 96 114 -0.32531 -0.322312 -0.888982
-1.09727 0.853437 1.65226 42 80 108 -0.168287 0.175995 -0.9699
-1.02792 0.880573 1.65109 28 65 91 0.599128 0.397768 -0.694857
-1.01586 0.862483 1.65032 45 80 102 0.29519 0.327824 -0.897438
-1.09124 0.835347 1.65297 55 89 113 -0.370085 -0.213343 -0.904169
-1.02792 0.883588 1.6528 28 65 91 0.669051 0.373156 -0.642749
-1.09426 0.853437 1.65239 43 81 109 -0.118225 0.177959 -0.97691
-1.08823 0.835347 1.65181 56 89 113 -0.373164 -0.260174 -0.890538
-1.01888 0.865498 1.65059 38 77 101 0.338108 0.290445 -0.895167
-1.09124 0.838362 1.65236 57 90 113 -0.391688 -0.265627 -0.880922
-1.03094 0.886604 1.65145 28 65 91 0.771373 0.229075 -0.593724
-1.09727 0.856452 1.65304 40 78 106 -0.136011 0.224094 -0.96503
-1.08823 0.838362 1.65099 52 89 113 -0.369635 -0.242987 -0.896843
-1.01586 0.865498 1.65132 40 78 102 0.276312 0.365926 -0.888679
-1.08823 0.853437 1.65026 58 93 117 -0.405769 0.006482 -0.913953
-1.09727 0.841377 1.65257 64 96 117 -0.218763 -0.158505 -0.962818
-1.09124 0.853437 1.65179 53 94 120 -0.268788 0.038398 -0.962434
-1.03697 0.892634 1.65034 29 65 91 0.144965 0.50518 -0.850752
-1.01888 0.868513 1.65117 36 73 99 0.409837 0.403459 -0.81808
-1.09426 0.841377 1.65224 67 97 118 -0.242791 -0.285386 -0.92715
-1.08823 0.856452 1.65056 58 93 117 -0.356609 0.078801 -0.930924
-1.09124 0.856452 1.65184 60 101 126 -0.389488 0.103221 -0.915229
-1.03395 0.892634 1.6508 29 65 91 0.432182 0.412902 -0.801705
-1.09124 0.841377 1.6511 44 77 103 -0.304726 -0.20081 -0.93103
-1.08823 0.859467 1.65075 61 95 117 -0.377064 0.184948 -0.907534
-1.01586 0.868513 1.65272 38 77 101 0.36321 0.413525 -0.834911
-1.08823 0.841377 1.65034 50 86 111 -0.244199 0.055782 -0.968119
-1.03094 0.889619 1.65204 31 67 91 0.719214 0.254491 -0.646502
-1.08823 0.862483 1.65179 61 95 117 -0.318739 0.277611 -0.906277
-1.09124 0.859467 1.65227 56 96 120 -0.434402 0.182829 -0.881968
-1.01285 0.853437 1.65315 50 89 114 0.158106 -0.218212 -0.963009
-1.08521 0.862483 1.65096 61 95 117 -0.291393 0.279795 -0.91477
-1.09124 0.862483 1.65308 55 94 118 -0.407359 0.257042 -0.876349
-1.01285 0.856452 1.65247 51 86 109 0.368859 -0.311177 -0.875849
-1.08823 0.865498 1.65258 54 93 118 -0.259684 0.285509 -0.922523
-1.01285 0.859467 1.65153 46 81 102 0.490351 -0.10722 -0.864905
-1.00983 0.859467 1.65282 47 85 108 0.356573 -0.101684 -0.928717
-1.01285 0.862483 1.65132 45 82 105 0.428526 0.182818 -0.884841
-1.08521 0.829316 1.65276 65 94 116 0.001261 -0.356781 -0.934187
-1.00983 0.862483 1.65307 45 82 105 0.456142 0.025416 -0.889544
-1.08521 0.832331 1.65181 65 95 117 -0.083795 -0.34449 -0.935043
-1.0822 0.832331 1.65212 65 97 119 0.097728 -0.4033 -0.909834
-1.01285 0.865498 1.6523 40 78 103 0.35834 0.349112 -0.86586
-1.07918 0.832331 1.65252 55 90 112 -0.00684 -0.573173 -0.819406
-1.07616 0.832331 1.65251 60 88 108 0.067826 -0.746086 -0.662386
-1.02189 0.871528 1.65148 32 71 99 0.500348 0.517082 -0.694463
-1.07013 0.832331 1.65286 88 111 126 -0.243539 -0.740044 -0.626916
-1.06712 0.832331 1.65163 91 114 128 0.190467 -0.577495 -0.793865
-1.02491 0.874543 1.65017 32 71 99 0.816695 0.326994 -0.475484
-1.08521 0.835347 1.6505 56 90 115 -0.143879 -0.370174 -0.917753
-1.0822 0.835347 1.6506 46 80 104 0.006358 -0.362378 -0.93201
-1.02491 0.877558 1.65226 33 71 95 0.725923 0.406583 -0.55473
-1.0822 0.838362 1.65016 59 91 110 0.00111 -0.147635 -0.989041
-1.07918 0.835347 1.65033 52 83 104 -0.11192 -0.55088 -0.827046
-1.06712 0.835347 1.65029 79 106 122 0.571106 -0.323359 -0.754504
-1.06411 0.835347 1.65273 73 103 122 0.199266 -0.477938 -0.855493
-1.06109 0.835347 1.65229 65 99 121 -0.209302 -0.437902 -0.874319
-1.08633 0.868513 1.65316 61 95 117 -0.316322 0.304442 -0.898474
-1.03998 0.897891 1.65316 36 67 89 0.130011 0.650054 -0.748683
-1.0822 0.872827 1.65316 56 83 102 -0.357262 0.320776 -0.877193
-1.03395 0.896238 1.65316 36 67 89 0.453006 0.677001 -0.580048
-1.07028 0.886604 1.65316 56 83 102 -0.425578 0.343917 -0.837021
-1.08062 0.874543 1.65316 56 83 102 -0.392597 0.36757 -0.843066
-1.07013 0.886821 1.65316 56 83 102 -0.411512 0.289129 -0.864328
-1.06579 0.892634 1.65316 56 83 102 -0.381577 0.285052 -0.879286
-1.06411 0.89516 1.65316 36 64 87 -0.326553 0.231608 -0.916363
-1.0607 0.898664 1.65316 33 63 84 -0.16126 0.443103 -0.881847
-1.05204 0.898483 1.65316 33 63 84 0.001334 0.500299 -0.865851
-1.05731 0.898664 1.65316 33 63 84 0.011996 0.467854 -0.883724
-1.05807 0.899417 1.65316 33 63 84 0.001365 0.591008 -0.806665
-1.04601 0.898125 1.65316 38 59 78 0.029052 0.563056 -0.825908
-1.07013 0.880573 1.65076 56 83 102 -0.364732 0.328106 -0.871388
-1.07013 0.886604 1.65308 56 83 102 -0.369941 0.3331 -0.867288
-1.07616 0.862483 1.6473 61 95 117 -0.378753 0.237274 -0.894565
-1.06411 0.880573 1.64846 56 83 102 -0.272253 0.304283 -0.912848
-1.0822 0.868513 1.65158 61 95 117 -0.364661 0.283626 -0.886893
-1.06411 0.886604 1.65051 56 83 102 -0.305531 0.305531 -0.901833
-1.07616 0.868513 1.64895 61 95 117 -0.378995 0.285379 -0.880296
-1.06411 0.892634 1.65251 56 83 102 -0.269323 0.283725 -0.920307
-1.07616 0.874543 1.65113 56 83 102 -0.385884 0.327463 -0.862474
-1.05807 0.886604 1.64896 32 71 99 -0.16916 0.298437 -0.939319
-1.07013 0.874543 1.64848 56 83 102 -0.357262 0.320776 -0.877193
-1.05807 0.892634 1.6509 32 71 99 -0.181686 0.300961 -0.936169
-1.05204 0.892634 1.65006 32 71 99 -0.078558 0.350184 -0.933381
-1.05807 0.898664 1.65282 33 63 84 0.001234 0.314746 -0.949175
-1.09426 0.830932 1.65617 86 104 117 -0.419084 -0.581417 -0.697369
-1.10344 0.856452 1.65617 40 77 102 -0.65692 0.079758 -0.74973
-1.09564 0.832331 1.65617 86 104 117 -0.583506 -0.367756 -0.72407
-1.10334 0.859467 1.65617 40 77 102 -0.723774 0.101712 -0.6825
-1.09124 0.829097 1.65617 86 104 117 -0.296894 -0.63391 -0.714151
-1.1033 0.859695 1.65617 40 77 102 -0.622629 0.175067 -0.762683
-1.08823 0.827693 1.65617 75 108 127 -0.254217 -0.633174 -0.731071
-1.08521 0.827147 1.65617 75 108 127 -0.109977 -0.790371 -0.602676
-1.05014 0.832331 1.65617 68 94 111 0.806782 -0.298399 -0.509962
-1.10227 0.862483 1.65617 40 77 102 -0.452003 0.248069 -0.856828
-1.0822 0.826837 1.65617 75 108 127 0.098536 -0.733872 -0.672103
-1.10029 0.865117 1.65617 51 92 117 -0.41213 0.310255 -0.856674
-1.0917 0.829316 1.65617 86 104 117 -0.357689 -0.586349 -0.726811
-1.07918 0.827864 1.65617 70 104 124 0.182894 -0.668561 -0.720816
-1.0999 0.865498 1.65617 53 94 120 -0.241093 0.249455 -0.937895
-1.10029 0.841052 1.65617 83 104 119 -0.78465 -0.318015 -0.532156
-1.1004 0.841377 1.65617 83 104 119 -0.803009 -0.240747 -0.545176
-1.09727 0.868069 1.65617 53 94 120 -0.220459 0.236891 -0.946193
-1.09682 0.868513 1.65617 53 94 120 -0.124681 0.161715 -0.97893
-1.01226 0.850422 1.65617 57 96 120 0.623529 -0.53566 -0.569456
-1.00983 0.853173 1.65617 57 96 120 0.525288 -0.623251 -0.579337
-1.10128 0.844392 1.65617 83 104 119 -0.760361 -0.239866 -0.603585
-1.00869 0.853437 1.65617 50 89 113 0.406757 -0.659113 -0.632549
-1.09727 0.834815 1.65617 67 96 118 -0.624631 -0.35904 -0.693488
-1.09756 0.835347 1.65617 67 96 118 -0.714608 -0.376196 -0.589757
-1.00682 0.854088 1.65617 54 89 113 0.54593 -0.559451 -0.623678
-1.09919 0.838362 1.65617 67 96 118 -0.731766 -0.371613 -0.571334
-1.0056 0.856452 1.65617 50 89 113 0.844128 -0.133129 -0.519351
-1.04965 0.835347 1.65617 68 94 111 0.836559 -0.337449 -0.431621
-1.04903 0.837174 1.65617 67 98 117 0.891128 -0.38403 -0.241687
-1.04827 0.838362 1.65617 69 97 117 0.741481 -0.657596 -0.133317
-1.00602 0.859467 1.65617 44 82 106 0.840209 0.217269 -0.496833
-1.07616 0.828309 1.65617 66 97 115 0.05858 -0.638663 -0.767253
-1.09426 0.870757 1.65617 48 85 111 -0.108927 0.132867 -0.98513
-1.00682 0.861153 1.65617 43 82 106 0.749025 0.27512 -0.602719
-1.04601 0.840911 1.65617 74 97 112 0.761966 -0.643406 -0.073739
-1.00741 0.862483 1.65617 43 82 106 0.741752 0.162306 -0.650739
-1.07315 0.828372 1.65617 92 110 120 0.082443 -0.606026 -0.791161
-1.00748 0.865498 1.65617 37 77 100 0.658324 0.098236 -0.746297
-1.06712 0.828469 1.65617 96 117 128 -0.111012 -0.661634 -0.741563
-1.0084 0.868513 1.65617 37 76 100 0.555689 0.272335 -0.785521
-1.06411 0.8278 1.65617 94 116 128 0.006945 -0.720842 -0.693064
-1.02189 0.874166 1.65617 28 57 79 0.458467 0.837673 -0.296838
-1.06109 0.828167 1.65617 82 107 124 0.035137 -0.777223 -0.628244
-1.02217 0.874543 1.65617 28 57 79 0.838353 0.418393 -0.349444
-1.01888 0.872752 1.65617 32 71 95 0.361823 0.792794 -0.490471
-1.05807 0.828075 1.65617 60 96 120 0.021001 -0.749018 -0.662216
-1.01586 0.871708 1.65617 32 71 95 0.215497 0.758116 -0.615485
-1.02334 0.877558 1.65617 33 68 91 0.813615 0.426788 -0.394819
-1.05506 0.828601 1.65617 65 105 130 0.206053 -0.748296 -0.630552
-1.0535 0.829316 1.65617 65 105 130 0.27512 -0.602719 -0.749025
-1.1021 0.847407 1.65617 64 92 113 -0.729297 -0.172769 -0.662025
-1.10273 0.850422 1.65617 64 92 113 -0.708526 -0.130321 -0.693547
-1.05204 0.830106 1.65617 66 107 133 0.491631 -0.54868 -0.676202
-1.02988 0.892634 1.65617 33 65 88 0.769561 0.526542 -0.361289
-1.1032 0.853437 1.65617 64 92 113 -0.679939 -0.076838 -0.729231
-1.1033 0.854387 1.65617 64 92 113 -0.632626 -0.038042 -0.773523
-1.01285 0.87109 1.65617 33 72 96 0.201554 0.592353 -0.78006
-1.01505 0.871528 1.65617 33 72 96 0.172964 0.696449 -0.696449
-1.04571 0.841377 1.65617 86 97 100 0.756901 -0.652985 -0.026681
-1.00983 0.870125 1.65617 35 72 96 0.352353 0.506809 -0.786761
-1.043 0.844147 1.65617 86 97 100 0.720848 -0.692854 -0.018196
-1.04273 0.844392 1.65617 86 97 100 0.664859 -0.746385 0.029518
-1.03998 0.847061 1.65617 103 110 110 0.682943 -0.718809 0.130013
-1.03952 0.847407 1.65617 113 119 116 0.510574 -0.853817 0.101543
-1.03697 0.848845 1.65617 113 119 116 0.245876 -0.940442 0.234763
-1.01888 0.848909 1.65617 85 114 133 -0.099169 -0.892518 -0.439974
-1.01586 0.848686 1.65617 81 114 135 0.03533 -0.696704 -0.716488
-1.01285 0.849368 1.65617 68 106 130 0.329611 -0.375603 -0.866187
-1.09426 0.832331 1.65482 86 104 117 -0.40968 -0.356311 -0.839765
-1.09124 0.829316 1.65597 86 104 117 -0.33887 -0.575593 -0.744217
-1.08823 0.829316 1.65458 86 104 117 -0.35904 -0.624631 -0.693488
-1.09124 0.832331 1.65396 86 104 117 -0.318509 -0.492818 -0.809742
-1.1033 0.856452 1.65607 40 77 102 -0.575015 -0.004097 -0.818133
-1.1033 0.859467 1.65614 40 77 102 -0.516185 0.098661 -0.850776
-1.10029 0.856452 1.65395 41 77 103 -0.506258 0.095547 -0.857073
-1.10029 0.859467 1.65458 41 77 103 -0.348625 0.208027 -0.913885
-1.10029 0.862483 1.65532 40 77 102 -0.302909 0.268125 -0.914524
-1.09727 0.859467 1.65374 52 94 120 -0.169407 0.211431 -0.9626
-1.09426 0.856452 1.65319 57 100 125 -0.193515 0.108618 -0.975066
-1.09426 0.859467 1.65352 57 100 125 -0.128896 0.146082 -0.980839
-1.06411 0.832331 1.65351 66 99 121 0.043605 -0.387156 -0.920982
-1.01586 0.850422 1.65485 58 98 122 0.207238 -0.56338 -0.799785
-1.09727 0.862483 1.65444 48 90 116 -0.223595 0.256926 -0.94021
-1.0822 0.829316 1.65342 75 108 127 0.293788 -0.669451 -0.682294
-1.06109 0.832331 1.65336 66 99 121 -0.003983 -0.479313 -0.877635
-1.01285 0.850422 1.65559 58 98 122 0.270661 -0.580892 -0.767664
-1.09426 0.862483 1.65392 50 92 119 -0.188534 0.201718 -0.961127
-1.10029 0.841377 1.65603 83 104 119 -0.781025 -0.191053 -0.594557
-1.07918 0.829316 1.65488 70 104 124 0.222343 -0.614164 -0.75721
-1.05807 0.832331 1.65339 66 99 121 0.0744 -0.503958 -0.860518
-1.09727 0.865498 1.65543 53 94 120 -0.243233 0.28875 -0.925992
-1.10029 0.844392 1.65509 83 104 119 -0.71473 -0.142946 -0.684636
-1.00983 0.853437 1.6549 57 96 120 0.481238 -0.55837 -0.675746
-1.07616 0.829316 1.65532 66 97 115 0.058729 -0.643156 -0.763479
-1.05506 0.832331 1.65387 67 107 133 0.167409 -0.4963 -0.851857
-1.09727 0.835347 1.65594 67 96 118 -0.460512 -0.424713 -0.779454
-1.00983 0.856452 1.65324 57 95 120 0.365586 -0.425725 -0.827711
-1.09426 0.865498 1.65474 53 94 120 -0.222285 0.27541 -0.935275
-1.07315 0.829316 1.65535 92 110 120 0.073628 -0.63089 -0.772371
-1.05204 0.832331 1.65454 67 107 133 0.434849 -0.460908 -0.773609
-1.09426 0.835347 1.65421 67 96 118 -0.419657 -0.265126 -0.868099
-1.09426 0.868513 1.65571 53 94 120 -0.201494 0.282092 -0.93799
-1.00682 0.856452 1.65465 54 89 113 0.54051 -0.282074 -0.792643
-1.09727 0.838362 1.65423 67 96 118 -0.407166 -0.416746 -0.812735
-1.09124 0.865498 1.65389 52 94 120 -0.274946 0.30404 -0.912121
-1.07315 0.832331 1.65318 85 104 115 0.061006 -0.583104 -0.810103
-1.09426 0.838362 1.65362 67 96 118 -0.28554 -0.220836 -0.932576
-1.04903 0.838362 1.65376 67 98 117 0.775221 -0.596442 -0.208061
-1.09124 0.868513 1.65508 52 94 120 -0.262357 0.285295 -0.921833
-1.06712 0.829316 1.65528 96 117 128 -0.123709 -0.740763 -0.660278
-1.00682 0.859467 1.65493 43 82 105 0.699001 0.199936 -0.686602
-1.08823 0.868513 1.65388 52 94 120 -0.346137 0.321953 -0.881213
-1.06411 0.829316 1.65488 94 116 128 0.04635 -0.580082 -0.813238
-1.00983 0.865498 1.65409 34 75 100 0.630146 0.209017 -0.747815
-1.043 0.844392 1.65323 86 97 100 0.616856 -0.783652 -0.073333
-1.01285 0.868513 1.6542 34 75 100 0.271009 0.603826 -0.749632
-1.00983 0.868513 1.65533 34 75 100 0.357475 0.455979 -0.815043
-1.06109 0.829316 1.65508 82 107 124 0.023397 -0.549137 -0.835405
-1.05807 0.829316 1.65519 60 96 120 0.077963 -0.531567 -0.84342
-1.01888 0.871528 1.65412 32 71 95 0.377256 0.749613 -0.543837
-1.05506 0.829316 1.65564 65 105 130 0.181153 -0.516512 -0.836899
-1.01586 0.871528 1.65595 32 71 95 0.32041 0.745477 -0.584467
-1.01888 0.850422 1.65416 85 114 133 0.104204 -0.779331 -0.617887
-1.03094 0.892634 1.65399 31 60 81 0.777862 0.502942 -0.376802
-1.10029 0.847407 1.65431 64 92 113 -0.690778 -0.169263 -0.702977
-1.10029 0.850422 1.65376 64 92 113 -0.694805 -0.098418 -0.712432
-1.10029 0.853437 1.65355 64 92 113 -0.604149 0.043656 -0.795674
-1.09124 0.825728 1.65919 73 102 121 -0.396603 -0.557877 -0.729026
-1.09229 0.826301 1.65919 73 102 121 -0.364818 -0.600396 -0.711641
-1.10632 0.85842 1.65919 40 77 102 -0.78737 0.204133 -0.581702
-1.08823 0.823407 1.65919 73 102 121 -0.409582 -0.544465 -0.731984
-1.10583 0.859467 1.65919 40 77 102 -0.755481 0.165689 -0.633874
-1.10548 0.862483 1.65919 39 76 101 -0.714248 0.114339 -0.69049
-1.09426 0.82761 1.65919 86 104 117 -0.37683 -0.549748 -0.745504
-1.09659 0.829316 1.65919 86 104 117 -0.421948 -0.504039 -0.753595
-1.10516 0.865498 1.65919 51 92 117 -0.608648 0.043777 -0.792231
-1.10498 0.868513 1.65919 51 92 117 -0.530774 0.017738 -0.847328
-1.09727 0.830142 1.65919 86 104 117 -0.6046 -0.362105 -0.709463
-1.09847 0.832331 1.65919 86 104 117 -0.702104 -0.337206 -0.62717
-1.10029 0.836401 1.65919 83 104 119 -0.763775 -0.34717 -0.544169
-1.10108 0.838362 1.65919 83 104 119 -0.742828 -0.338238 -0.577755
-1.08521 0.822306 1.65919 73 97 115 -0.219887 -0.715802 -0.66278
-1.08797 0.823286 1.65919 73 97 115 -0.276003 -0.681234 -0.678043
-1.0822 0.821777 1.65919 68 95 116 0.023518 -0.571352 -0.820368
-1.07975 0.823286 1.65919 69 100 121 0.247762 -0.448403 -0.858806
-1.07918 0.823587 1.65919 68 105 127 0.096009 -0.523035 -0.846887
-1.10243 0.841377 1.65919 83 104 119 -0.771866 -0.305231 -0.557725
-1.04914 0.832331 1.65919 67 93 110 0.9187 -0.144028 -0.36776
-1.07616 0.824162 1.65919 69 101 120 0.006768 -0.537389 -0.843308
-1.04903 0.833306 1.65919 67 93 110 0.935303 -0.120816 -0.332582
-1.00801 0.850422 1.65919 52 90 114 0.549248 -0.247395 -0.798199
-1.00682 0.852007 1.65919 52 90 114 0.433423 -0.519119 -0.736655
-1.07315 0.823801 1.65919 84 102 113 0.105577 -0.545242 -0.831603
-1.1033 0.843369 1.65919 83 104 119 -0.614229 -0.347031 -0.708726
-1.07013 0.824969 1.65919 99 115 122 0.103916 -0.613248 -0.783025
-1.07565 0.898664 1.65919 34 67 90 -0.382214 0.071078 -0.921336
-1.10423 0.844392 1.65919 83 104 119 -0.534856 -0.192427 -0.82274
-1.00488 0.853437 1.65919 50 89 113 0.611221 -0.387161 -0.690301
-1.06712 0.825224 1.65919 93 115 127 0.032321 -0.642197 -0.765858
-1.07512 0.901679 1.65919 34 67 90 -0.333465 0.075128 -0.939764
-1.04877 0.835347 1.65919 68 94 111 0.965445 -0.141253 -0.219007
-1.09986 0.835347 1.65919 67 96 118 -0.741943 -0.34256 -0.576345
-1.06411 0.825266 1.65919 93 115 127 0.157369 -0.807825 -0.568026
-1.0747 0.904694 1.65919 34 67 90 -0.197938 0.103326 -0.974753
-1.04777 0.838362 1.65919 71 94 109 0.875025 -0.473559 -0.100366
-1.00419 0.856452 1.65919 46 87 112 0.860374 -0.06855 -0.505032
-1.04601 0.840403 1.65919 78 97 108 0.801148 -0.598464 0.001369
-1.07315 0.905933 1.65919 37 67 89 -0.151842 0.272778 -0.950019
-1.0043 0.859467 1.65919 44 84 108 0.839253 0.14257 -0.524717
-1.04543 0.841377 1.65919 80 94 99 0.830717 -0.533502 0.15901
-1.06109 0.826034 1.65919 71 103 124 0.031683 -0.847185 -0.530352
-1.07013 0.907604 1.65919 37 67 89 -0.011413 0.348737 -0.937151
-1.00486 0.862483 1.65919 42 79 102 0.748699 0.004152 -0.662897
-1.05807 0.825783 1.65919 71 103 124 -0.029256 -0.809413 -0.586511
-1.06712 0.906374 1.65919 37 66 90 0.066376 0.538065 -0.840286
-1.04407 0.844392 1.65919 101 107 106 0.786754 -0.426632 0.446098
-1.06411 0.906147 1.65919 37 66 90 -0.006928 0.730254 -0.683141
-1.05536 0.826301 1.65919 66 100 124 0.107556 -0.749943 -0.652701
-1.10507 0.871528 1.65919 50 90 118 -0.422159 0.116409 -0.899016
-1.043 0.845931 1.65919 105 111 110 0.659876 -0.579281 0.478536
-1.10332 0.874543 1.65919 51 91 118 -0.467989 0.461421 -0.753709
-1.05506 0.826398 1.65919 63 103 128 0.261038 -0.751474 -0.605925
-1.04166 0.847407 1.65919 111 114 110 0.601516 -0.611625 0.5139
-1.05204 0.827468 1.65919 64 105 130 0.279999 -0.654398 -0.702398
-1.1033 0.874562 1.65919 55 84 109 -0.169541 0.719404 -0.673582
-1.03998 0.848884 1.65919 105 111 110 0.425644 -0.744467 0.514389
-1.10029 0.875072 1.65919 55 84 109 -0.233621 0.653824 -0.719677
-1.00391 0.865498 1.65919 40 78 102 0.65519 -0.126859 -0.744737
-1.0039 0.868513 1.65919 37 76 100 0.573074 0.194081 -0.79619
-1.04969 0.829316 1.65919 62 100 124 0.643368 -0.376806 -0.666404
-1.01586 0.874303 1.65919 32 71 95 0.076948 0.738993 -0.669304
-1.03697 0.849608 1.65919 113 119 116 0.047355 -0.948384 0.313568
-1.03395 0.849387 1.65919 113 119 116 -0.142886 -0.960878 0.23727
-1.01726 0.874543 1.65919 32 71 95 0.179659 0.695601 -0.695601
-1.01888 0.875009 1.65919 28 57 79 0.428881 0.558043 -0.710387
-1.0215 0.877558 1.65919 28 57 79 0.52404 0.497252 -0.691464
-1.10502 0.847407 1.65919 64 92 113 -0.673152 -0.104582 -0.732071
-1.10525 0.850422 1.65919 64 92 113 -0.718999 -0.159609 -0.676436
-1.02792 0.891674 1.65919 31 60 81 0.81788 0.422492 -0.390606
-1.10632 0.853032 1.65919 51 81 104 -0.725661 -0.268352 -0.633564
-1.02844 0.892634 1.65919 31 60 81 0.737313 0.58823 -0.332196
-1.10657 0.853437 1.65919 51 81 104 -0.895156 -0.0119 -0.445595
-1.10688 0.856452 1.65919 51 81 104 -0.935511 0.048142 -0.350003
-1.01586 0.846728 1.65919 81 114 135 -0.38485 -0.797075 -0.465363
-1.01788 0.847407 1.65919 81 114 135 -0.264542 -0.907628 -0.325928
-1.01888 0.847665 1.65919 81 114 135 -0.205073 -0.913509 -0.35135
-1.01285 0.874152 1.65919 33 72 96 0.127113 0.704355 -0.698374
-1.01285 0.845504 1.65919 70 111 137 -0.117202 -0.72843 -0.675021
-1.00983 0.873412 1.65919 32 72 96 0.190711 0.584339 -0.788782
-1.00983 0.845432 1.65919 68 105 129 0.254547 -0.649807 -0.71621
-1.00596 0.871528 1.65919 32 70 94 0.507307 0.40291 -0.761776
-1.00878 0.847407 1.65919 57 95 120 0.679691 -0.319568 -0.660225
-1.00682 0.872334 1.65919 32 70 94 0.248555 0.511005 -0.822857
-1.09727 0.876405 1.65919 49 85 111 -0.23835 0.577961 -0.780481
-1.09483 0.877558 1.65919 49 85 111 -0.295395 0.589193 -0.752059
-1.09426 0.877815 1.65919 49 85 111 -0.282884 0.621705 -0.730383
-1.09124 0.826301 1.65864 73 102 121 -0.32594 -0.614584 -0.718366
-1.08823 0.826301 1.65717 73 102 121 -0.232935 -0.538373 -0.809874
-1.09426 0.829316 1.65758 86 104 117 -0.458852 -0.568976 -0.682438
-1.10632 0.856452 1.65839 40 77 102 -0.662886 0.006919 -0.748688
-1.08521 0.823286 1.65822 73 97 115 -0.086156 -0.492925 -0.865796
-1.1033 0.862483 1.65693 39 76 101 -0.702171 0.175925 -0.689932
-1.0822 0.823286 1.65852 68 95 116 0.151444 -0.507264 -0.84838
-1.04903 0.835347 1.65824 67 93 110 0.934197 -0.222695 -0.278718
-1.08521 0.826301 1.65714 70 97 116 -0.071065 -0.486307 -0.870893
-1.00983 0.850422 1.65814 56 94 118 0.544589 -0.326111 -0.772706
-1.1033 0.865498 1.65791 51 92 117 -0.549448 0.173114 -0.817398
-1.043 0.844392 1.65706 101 107 106 0.743258 -0.620171 0.250909
-1.10029 0.865498 1.6563 51 92 117 -0.423384 0.131688 -0.896328
-1.0822 0.826301 1.65668 70 97 116 0.071388 -0.494119 -0.866458
-1.00682 0.853437 1.65736 52 90 114 0.552577 -0.62693 -0.549197
-1.07315 0.898664 1.65814 34 67 90 -0.45068 0.152159 -0.879622
-1.1033 0.868513 1.65813 51 92 117 -0.465806 0.097102 -0.879543
-1.07918 0.826301 1.65758 68 105 127 0.173096 -0.558424 -0.811295
-1.07315 0.901679 1.65838 34 67 90 -0.364434 0.134411 -0.921478
-1.07616 0.826301 1.65777 69 101 120 0.037813 -0.583998 -0.810874
-1.07013 0.898664 1.65656 34 67 90 -0.393759 0.212249 -0.894374
-1.00682 0.862483 1.65691 44 82 106 0.753658 0.086007 -0.651615
-1.03998 0.847407 1.6571 111 114 110 0.588802 -0.678874 0.438683
-1.10029 0.868513 1.65686 51 92 118 -0.315228 0.128526 -0.940272
-1.07013 0.901679 1.65744 34 67 90 -0.261373 0.322701 -0.909697
-1.00682 0.865498 1.65684 37 76 100 0.651645 -0.023824 -0.75815
-1.09727 0.832331 1.65771 86 104 117 -0.64303 -0.435924 -0.629668
-1.07315 0.826301 1.65768 84 102 113 0.040384 -0.550063 -0.834146
-1.09727 0.868513 1.65625 53 94 120 -0.193909 0.001147 -0.981019
-1.00682 0.868513 1.65718 35 74 98 0.533809 0.278715 -0.798352
-1.07013 0.826301 1.65825 99 115 122 0.06716 -0.590152 -0.804493
-1.07315 0.904694 1.65886 34 67 90 -0.255524 0.177109 -0.950442
-1.01586 0.847407 1.6579 81 114 135 -0.150979 -0.854568 -0.49691
-1.07013 0.904694 1.65824 34 67 90 -0.071332 0.30997 -0.948067
-1.02189 0.874543 1.65686 28 57 79 0.485466 0.613132 -0.623211
-1.06712 0.826301 1.65822 93 115 127 -0.052879 -0.693138 -0.718863
-1.01285 0.847407 1.65735 70 111 137 0.004142 -0.658597 -0.752485
-1.01888 0.874543 1.65866 32 71 95 0.287493 0.767178 -0.573398
-1.06411 0.826301 1.65781 93 115 127 0.061697 -0.764755 -0.641361
-1.06712 0.904694 1.65819 37 66 90 -0.16553 0.461433 -0.871596
-1.10029 0.838362 1.65788 83 104 119 -0.794637 -0.334163 -0.506841
-1.06411 0.904694 1.65766 37 66 90 -0.10342 0.575362 -0.811334
-1.02491 0.880573 1.65708 31 55 76 0.753992 0.277787 -0.595257
-1.1033 0.844392 1.65874 83 104 119 -0.690324 -0.261847 -0.674455
-1.06109 0.826301 1.65881 71 103 124 0.058255 -0.797104 -0.601025
-1.02792 0.889619 1.65713 31 60 81 0.816889 0.279585 -0.504503
-1.05807 0.826301 1.65844 71 103 124 0.073142 -0.79596 -0.600914
-1.00983 0.847407 1.65806 68 105 129 0.463659 -0.252488 -0.849276
-1.05204 0.829316 1.65699 64 105 130 0.520924 -0.611959 -0.595101
-1.01285 0.871528 1.65657 33 72 96 0.175925 0.689932 -0.702171
-1.00983 0.871528 1.65748 33 72 96 0.22685 0.668034 -0.70871
-1.1033 0.871528 1.65853 50 90 118 -0.385518 0.135983 -0.912625
-1.1033 0.847407 1.65762 64 92 113 -0.702669 -0.206302 -0.680953
-1.10029 0.871528 1.65734 51 91 118 -0.305414 0.27911 -0.910396
-1.1033 0.850422 1.65684 64 92 113 -0.744737 -0.126859 -0.65519
-1.1033 0.874543 1.65918 51 91 118 -0.23222 0.327416 -0.9159
-1.00682 0.871528 1.65867 32 70 95 0.368443 0.52426 -0.767725
-1.10632 0.853437 1.65899 51 81 104 -0.650488 -0.152435 -0.744062
-1.10029 0.874543 1.65885 52 92 119 -0.237277 0.451885 -0.859942
-1.1033 0.853437 1.65627 64 92 113 -0.702413 -0.185978 -0.687043
-1.09727 0.871528 1.65618 48 85 111 -0.189715 0.263417 -0.945844
-1.09426 0.871528 1.65632 48 85 111 -0.137997 0.251023 -0.958094
-1.09727 0.874543 1.65779 48 85 111 -0.224517 0.511654 -0.829338
-1.09426 0.874543 1.65723 48 85 111 -0.163237 0.429039 -0.888414
-1.09426 0.877558 1.65898 49 85 111 -0.199266 0.477938 -0.855493
-1.08824 0.880573 1.65919 49 85 111 -0.271867 0.495574 -0.824921
-1.08823 0.880581 1.65919 58 83 107 -0.380364 0.434474 -0.816429
-1.0822 0.885768 1.65919 56 83 102 -0.398168 0.404514 -0.823305
-1.08144 0.886604 1.65919 56 83 102 -0.450482 0.328051 -0.83033
-1.07716 0.892634 1.65919 56 83 102 -0.445754 0.226629 -0.865993
-1.03352 0.898664 1.65919 36 62 82 0.720685 0.613797 -0.322284
-1.03998 0.901234 1.65919 36 62 82 0.279253 0.862175 -0.422695
-1.03395 0.898955 1.65919 36 62 82 0.383892 0.861831 -0.331473
-1.07616 0.89586 1.65919 36 68 93 -0.439825 0.141833 -0.886813
-1.04601 0.902972 1.65919 38 59 78 0.195422 0.764761 -0.613963
-1.05052 0.904694 1.65919 38 59 78 0.339998 0.72392 -0.600284
-1.05807 0.906269 1.65919 32 55 75 0.041123 0.684918 -0.727459
-1.05204 0.905183 1.65919 32 55 75 0.220508 0.695929 -0.683418
-1.08823 0.874543 1.65596 49 85 111 -0.274399 0.373363 -0.886174
-1.08823 0.880573 1.65918 49 85 111 -0.350801 0.429456 -0.832169
-1.0822 0.874543 1.65383 56 83 102 -0.317963 0.388621 -0.864797
-1.0822 0.880573 1.65663 56 83 102 -0.379139 0.398018 -0.835365
-1.03998 0.898664 1.65414 36 62 82 0.18601 0.858621 -0.477673
-1.03395 0.898664 1.65826 36 62 82 0.504857 0.774331 -0.381484
-1.07616 0.886604 1.65631 56 83 102 -0.445903 0.341911 -0.827205
-1.07616 0.892634 1.6586 56 83 102 -0.479809 0.260732 -0.837737
-1.07013 0.892634 1.65516 56 83 102 -0.443645 0.246806 -0.861549
-1.06411 0.898664 1.65402 35 67 90 -0.269441 0.389861 -0.880574
-1.05204 0.898664 1.65327 33 61 85 0.13314 0.668692 -0.731522
-1.05807 0.904694 1.65725 33 61 85 0.04099 0.643115 -0.764671
-1.05204 0.904694 1.65867 33 61 85 0.179242 0.681731 -0.709306
-1.04601 0.898664 1.65367 38 59 78 0.1005 0.805459 -0.584067
-1.11376 0.859467 1.6622 97 91 104 0.375994 0.019381 -0.926419
-1.10029 0.87827 1.6622 49 85 111 -0.262302 0.659729 -0.704241
-1.10895 0.844392 1.6622 68 95 115 -0.587273 -0.078973 -0.805527
-1.10895 0.847407 1.6622 68 95 115 -0.634058 0.088914 -0.768157
-1.09727 0.879425 1.6622 49 85 111 -0.312377 0.665217 -0.678165
-1.1081 0.850422 1.6622 68 95 116 -0.72552 0.064907 -0.685133
-1.0954 0.880573 1.6622 49 85 111 -0.382754 0.57331 -0.724441
-1.10834 0.853437 1.6622 64 92 114 -0.823797 -0.026306 -0.566274
-1.10774 0.856452 1.6622 64 92 114 -0.866832 0.095054 -0.489455
-1.08521 0.819582 1.6622 68 92 110 -0.323201 -0.674011 -0.664267
-1.04652 0.826301 1.6622 49 84 106 0.683325 -0.04404 -0.728785
-1.08619 0.820271 1.6622 68 92 110 -0.387561 -0.674522 -0.628344
-1.10754 0.859467 1.6622 49 84 109 -0.717477 -0.052987 -0.694564
-1.04725 0.829316 1.6622 49 84 106 0.835708 0.127332 -0.534209
-1.03998 0.850941 1.6622 112 116 117 0.141739 -0.987488 0.069112
-1.0822 0.818137 1.6622 68 92 110 -0.220095 -0.644675 -0.732088
-1.10809 0.862483 1.6622 49 84 109 -0.718125 -0.120431 -0.685415
-1.03697 0.85102 1.6622 112 116 117 -0.082154 -0.995704 0.04272
-1.04796 0.832331 1.6622 55 83 100 0.867978 0.039765 -0.495008
-1.03501 0.850422 1.6622 112 116 117 -0.325234 -0.941187 0.091596
-1.07918 0.818122 1.6622 68 95 114 0.055059 -0.577415 -0.814592
-1.10904 0.865498 1.6622 55 83 106 -0.643674 -0.12993 -0.754189
-1.07616 0.818426 1.6622 68 95 114 0.090451 -0.552758 -0.828419
-1.02792 0.848 1.6622 98 110 118 -0.10763 -0.944755 -0.309603
-1.08521 0.899997 1.6622 38 69 94 -0.313234 -0.289705 -0.904409
-1.04764 0.835347 1.6622 73 91 101 0.922389 0.057233 -0.381999
-1.02491 0.84788 1.6622 98 110 118 -0.068452 -0.969527 -0.235225
-1.10029 0.82829 1.6622 82 102 117 -0.521263 -0.270806 -0.809289
-1.07315 0.819042 1.6622 65 100 120 0.170257 -0.57104 -0.803072
-1.02189 0.847602 1.6622 99 119 130 -0.113025 -0.960065 -0.255931
-1.10058 0.829316 1.6622 82 102 117 -0.611233 -0.141973 -0.778613
-1.08653 0.901679 1.6622 38 69 94 -0.525839 -0.22536 -0.820187
-1.10933 0.866271 1.6622 55 83 106 -0.450498 -0.087868 -0.888443
-1.10132 0.832331 1.6622 82 102 117 -0.687949 -0.179265 -0.703271
-1.01888 0.846897 1.6622 91 117 134 -0.261569 -0.917658 -0.299142
-1.0479 0.838362 1.6622 78 95 102 0.983281 -0.182004 0.005723
-1.10982 0.868513 1.6622 55 83 106 -0.433888 -0.108121 -0.894456
-1.02093 0.847407 1.6622 91 117 134 -0.17266 -0.925063 -0.338301
-1.09727 0.824456 1.6622 79 100 116 -0.239579 -0.368922 -0.898053
-1.0472 0.841377 1.6622 71 84 88 0.912755 -0.269314 0.307163
-1.08395 0.898664 1.6622 38 69 94 -0.304383 -0.098826 -0.947409
-1.09933 0.826301 1.6622 79 100 116 -0.357867 -0.288989 -0.887928
-1.04601 0.844096 1.6622 55 64 70 0.827714 -0.348428 0.439871
-1.08739 0.904694 1.6622 38 69 94 -0.601075 -0.040822 -0.798149
-1.01586 0.845954 1.6622 83 114 133 -0.441021 -0.826718 -0.34934
-1.07045 0.820271 1.6622 78 103 118 0.248069 -0.503841 -0.827409
-1.09426 0.823458 1.6622 79 100 116 -0.227663 -0.499636 -0.835783
-1.11768 0.874543 1.6622 105 78 89 0.451931 0.014578 -0.891934
-1.04586 0.844392 1.6622 91 99 99 0.753514 -0.481001 0.448168
-1.09124 0.822163 1.6622 94 107 117 -0.136318 -0.639644 -0.756487
-1.01468 0.844392 1.6622 57 94 119 -0.60429 -0.696498 -0.386943
-1.08738 0.907709 1.6622 39 69 93 -0.587875 0.198005 -0.784345
-1.09397 0.823286 1.6622 94 107 117 -0.260568 -0.535178 -0.803548
-1.00872 0.844392 1.6622 60 97 122 0.592842 -0.586086 -0.552306
-1.08823 0.821304 1.6622 98 110 120 -0.278718 -0.746964 -0.603623
-1.00682 0.846305 1.6622 60 97 122 0.54965 -0.566562 -0.613916
-1.01285 0.842871 1.6622 72 107 130 -0.263893 -0.834889 -0.483032
-1.08521 0.910368 1.6622 42 71 93 -0.480021 0.470124 -0.740651
-1.00483 0.847407 1.6622 57 94 118 0.415835 -0.591446 -0.690849
-1.00983 0.843246 1.6622 72 107 130 0.402696 -0.681103 -0.611502
-1.08312 0.910725 1.6622 41 70 93 -0.132102 0.589265 -0.797067
-1.10212 0.835347 1.6622 81 104 120 -0.735447 -0.279183 -0.617393
-1.0038 0.848095 1.6622 54 89 113 0.587398 -0.466906 -0.661032
-1.0822 0.910822 1.6622 40 69 89 -0.117052 0.635638 -0.763062
-1.1033 0.83783 1.6622 81 104 120 -0.630609 -0.34382 -0.695788
-1.10365 0.838362 1.6622 81 104 120 -0.429052 -0.511246 -0.744676
-1.00242 0.850422 1.6622 56 94 118 0.848617 -0.25535 -0.463299
-1.07013 0.820499 1.6622 89 108 116 0.153603 -0.553269 -0.818718
-1.07918 0.91138 1.6622 35 64 91 -0.097222 0.584781 -0.805344
-1.04391 0.847407 1.6622 108 111 106 0.766108 -0.494948 0.410006
-1.10632 0.840324 1.6622 84 109 125 -0.383515 -0.540184 -0.749078
-1.07616 0.911818 1.6622 35 64 91 -0.116311 0.593333 -0.79651
-1.043 0.848947 1.6622 110 112 106 0.65757 -0.641007 0.395867
-1.10804 0.841377 1.6622 84 109 125 -0.397597 -0.394429 -0.828458
-1.06712 0.821531 1.6622 97 116 126 0.207182 -0.497538 -0.842337
-1.0024 0.853437 1.6622 48 89 114 0.874174 -0.059383 -0.481969
-1.04128 0.850422 1.6622 110 112 106 0.53821 -0.756096 0.372357
-1.06411 0.910073 1.6622 37 66 90 0.06885 0.512862 -0.855706
-1.06472 0.823286 1.6622 93 114 126 0.360679 -0.572842 -0.736045
-1.00234 0.856452 1.6622 44 85 109 0.809239 -0.15407 -0.566916
-1.06624 0.910725 1.6622 37 66 90 0.115895 0.585342 -0.802461
-1.11053 0.871528 1.6622 50 75 101 -0.417323 0.0039 -0.90875
-1.06411 0.82381 1.6622 88 109 125 0.179536 -0.819226 -0.544642
-1.07315 0.912586 1.6622 42 71 96 -0.029541 0.651318 -0.75823
-1.10989 0.874543 1.6622 42 71 98 -0.310026 0.068751 -0.948239
-1.00092 0.859467 1.6622 44 85 109 0.691228 -0.189357 -0.697386
-1.07013 0.912006 1.6622 42 71 96 0.146113 0.670312 -0.727552
-1.03395 0.849848 1.6622 87 93 98 -0.348474 -0.93579 -0.053511
-1.10933 0.87533 1.6622 62 79 102 -0.092316 0.414733 -0.905248
-1.06109 0.824153 1.6622 76 103 123 0.072404 -0.830521 -0.552261
-1.06712 0.911004 1.6622 35 63 85 0.210191 0.686624 -0.695965
-1.0012 0.862483 1.6622 44 85 109 0.581864 0.058045 -0.811212
-1.05807 0.823939 1.6622 74 101 123 -0.112851 -0.807544 -0.578911
-1.10632 0.875648 1.6622 53 81 107 -0.178985 0.631801 -0.754183
-1.1033 0.877028 1.6622 55 89 115 -0.329551 0.689947 -0.644492
-1.0009 0.865498 1.6622 38 77 100 0.663164 -0.126672 -0.737677
-1.05506 0.822702 1.6622 70 103 126 -0.088494 -0.470564 -0.877917
-1.00079 0.868312 1.6622 38 75 98 0.741138 -0.02672 -0.670821
-1.10198 0.877558 1.6622 55 89 115 -0.251849 0.676349 -0.692188
-1.05615 0.823286 1.6622 70 103 126 -0.155233 -0.622438 -0.767121
-1.00075 0.868513 1.6622 38 77 100 0.824239 0.001358 -0.56624
-1.05204 0.822402 1.6622 70 103 126 0.056315 -0.46563 -0.883186
-1.01888 0.879304 1.6622 28 57 79 0.232618 0.472837 -0.849891
