ply
format ascii 1.0
element vertex 754
property float x
property float y
property float z
property uchar red
property uchar green
property uchar blue
property float nx
property float ny
property float nz
end_header
-0.946515 0.413229 1.71741 51 56 62 -0.073808 0.727953 -0.681642
-0.922394 0.392123 1.71658 32 48 61 0.804229 0.263912 -0.532509
-0.9435 0.413229 1.71712 51 56 62 0.05999 0.855209 -0.5148
-0.925409 0.398153 1.71692 30 45 56 0.638804 0.687818 -0.344726
-0.922394 0.395138 1.71806 32 47 60 0.732301 0.413051 -0.541409
-1.03395 0.434334 1.71713 82 52 57 0.154088 0.337327 -0.928691
-0.95556 0.419259 1.71805 43 50 57 0.385206 -0.204959 -0.899782
-1.03094 0.434334 1.71754 81 63 67 0.092542 0.513962 -0.852807
-0.952545 0.419259 1.71886 43 50 57 0.20788 -0.032073 -0.977628
-0.931439 0.404183 1.71844 36 48 57 0.640292 0.646945 -0.414111
-1.02792 0.434334 1.7176 66 65 75 -0.078655 0.567744 -0.819439
-0.937469 0.410213 1.71791 46 52 58 0.661536 0.581147 -0.473961
-0.95556 0.422274 1.71762 43 50 57 0.509806 0.28706 -0.810984
-1.02491 0.434334 1.71687 68 66 75 -0.293983 0.560952 -0.773891
-0.934454 0.407198 1.71827 41 48 54 0.66745 0.624389 -0.40577
-0.952545 0.422274 1.71895 43 50 57 0.332044 0.058596 -0.941442
-0.928424 0.401168 1.71805 33 46 56 0.61751 0.620875 -0.482903
-0.967621 0.428304 1.71763 47 55 64 0.08286 0.943027 -0.322234
-0.964606 0.428304 1.71874 47 55 64 0.132501 0.932974 -0.334669
-0.958575 0.425289 1.71697 48 55 63 0.53796 0.564942 -0.625652
-0.985712 0.431319 1.71655 57 67 80 0.327697 0.784875 -0.525914
-0.95556 0.425289 1.71938 46 53 61 0.510658 0.567959 -0.645485
-0.982697 0.431319 1.71842 41 58 73 0.319448 0.768922 -0.553816
-0.973651 0.428304 1.71692 46 59 73 0.06811 0.925489 -0.3726
-0.940485 0.413229 1.71718 43 49 55 0.409241 0.807248 -0.42529
-0.970636 0.428304 1.71741 46 59 73 0.056475 0.933805 -0.353296
-1.01888 0.43735 1.71899 65 57 68 0.001368 0.805708 -0.592312
-0.958575 0.413229 1.71782 45 45 45 0.324503 0.31254 -0.892758
-1.01586 0.43735 1.71891 63 58 69 0.040053 0.849406 -0.526218
-0.958575 0.416244 1.71798 67 68 68 0.477673 -0.18601 -0.858621
-1.01285 0.43735 1.71893 68 61 68 0.049772 0.775022 -0.629972
-1.00682 0.439487 1.7225 84 64 65 0.11812 0.832674 -0.541019
-1.0038 0.439035 1.7225 80 62 63 0.207342 0.903317 -0.375536
-0.931439 0.406531 1.7225 42 49 56 0.661332 0.654768 -0.365948
-0.932092 0.407198 1.7225 42 49 56 0.667214 0.65082 -0.362296
-0.934454 0.409611 1.7225 42 49 56 0.675614 0.646168 -0.354983
-0.934978 0.410213 1.7225 42 49 56 0.72459 0.625419 -0.289516
-0.985712 0.435768 1.7225 52 62 77 0.175743 0.750345 -0.637258
-0.982697 0.435134 1.7225 52 62 77 0.156039 0.689297 -0.707476
-0.981297 0.434334 1.7225 56 62 74 0.376627 0.679244 -0.629904
-0.937469 0.412685 1.7225 40 48 55 0.672243 0.703583 -0.230349
-0.938157 0.413229 1.7225 40 48 55 0.548491 0.812861 -0.195998
-0.940485 0.414859 1.7225 40 48 55 0.484551 0.782736 -0.390558
-0.942604 0.416244 1.7225 40 48 55 0.507733 0.750919 -0.422289
-0.925409 0.399907 1.7225 34 46 58 0.618896 0.709862 -0.33625
-0.9435 0.416872 1.7225 41 51 60 0.506209 0.693322 -0.512891
-0.926373 0.401168 1.7225 34 46 58 0.714642 0.6411 -0.279782
-0.928424 0.403563 1.7225 34 46 58 0.702605 0.641228 -0.3085
-0.92912 0.404183 1.7225 34 46 58 0.644256 0.677043 -0.355734
-0.923028 0.398153 1.7225 30 46 59 0.623433 0.734478 -0.268092
-0.915149 0.383077 1.7225 46 62 72 0.713373 0.293365 -0.636425
-0.916876 0.386092 1.7225 31 47 61 0.709836 0.443855 -0.546923
-0.916364 0.385222 1.7225 45 62 72 0.692674 0.395105 -0.603403
-0.918896 0.389108 1.7225 31 47 61 0.724352 0.420751 -0.546152
-0.919379 0.39059 1.7225 32 48 62 0.910879 0.172482 -0.3749
-0.919668 0.392123 1.7225 28 45 59 0.938192 0.204317 -0.279373
-0.920381 0.395138 1.7225 31 47 60 0.841068 0.438479 -0.316766
-0.979681 0.433293 1.7225 33 48 64 0.420206 0.692593 -0.586295
-0.922394 0.397638 1.7225 31 47 60 0.714841 0.627704 -0.308204
-0.973651 0.430651 1.7225 46 59 73 0.180194 0.917995 -0.353293
-0.975902 0.431319 1.7225 46 59 73 0.281816 0.851609 -0.441974
-0.976666 0.431671 1.7225 46 59 73 0.409782 0.738924 -0.534856
-0.946481 0.419259 1.7225 43 53 62 0.576776 0.718095 -0.389447
-0.946515 0.419293 1.7225 41 50 58 0.622315 0.598704 -0.50426
-0.949482 0.422274 1.7225 41 50 58 0.631305 0.631305 -0.450454
-0.958575 0.428123 1.7225 44 57 67 0.412421 0.85419 -0.316653
-0.959147 0.428304 1.7225 44 57 67 0.261569 0.917658 -0.299142
-0.95556 0.42673 1.7225 44 57 67 0.433668 0.84402 -0.315536
-0.967621 0.429663 1.7225 47 55 64 0.118596 0.947435 -0.297156
-0.964606 0.429428 1.7225 47 55 64 0.1251 0.954712 -0.269953
-0.961591 0.428954 1.7225 47 55 64 0.192841 0.945059 -0.26396
-0.952545 0.424673 1.7225 38 52 65 0.547465 0.746841 -0.377506
-0.953365 0.425289 1.7225 38 52 65 0.543165 0.748687 -0.380052
-0.94953 0.422313 1.7225 38 52 65 0.559669 0.653787 -0.509248
-0.988727 0.436457 1.7225 62 70 82 0.206771 0.807171 -0.55292
-1.0038 0.43735 1.71961 82 63 64 0.001338 0.860313 -0.509765
-0.985712 0.434334 1.72084 52 62 77 0.23657 0.756712 -0.609443
-0.982697 0.434334 1.72197 52 62 77 0.230835 0.705066 -0.67052
-0.919379 0.389108 1.72172 31 47 61 0.78938 0.379355 -0.482668
-0.988727 0.434334 1.71953 48 60 74 0.25201 0.781074 -0.571327
-0.979681 0.431319 1.7201 40 52 67 0.359813 0.737536 -0.571468
-0.9435 0.416244 1.72151 40 48 55 0.379911 0.758191 -0.529919
-0.976666 0.431319 1.72195 46 59 73 0.295554 0.824111 -0.483207
-0.946515 0.416244 1.71983 50 54 57 0.373661 0.623866 -0.686417
-0.916364 0.383077 1.72107 46 62 72 0.757616 0.334385 -0.560539
-0.94953 0.419259 1.71976 51 56 62 0.555975 0.459138 -0.692881
-0.94953 0.422274 1.72235 51 56 62 0.641386 0.563948 -0.520179
-0.946515 0.419259 1.72246 43 53 62 0.473057 0.509574 -0.718715
-0.961591 0.428304 1.72046 47 55 64 0.216282 0.928742 -0.301099
-0.988727 0.296498 1.72552 51 36 44 0.217201 0.867308 -0.447884
-1.0038 0.439694 1.72552 82 63 64 0.294538 0.941153 -0.165764
-1.00533 0.440365 1.72552 82 63 64 0.345771 0.921586 -0.176414
-0.979681 0.436029 1.72552 57 61 73 0.503143 0.690358 -0.519858
-0.981698 0.43735 1.72552 57 61 73 0.454383 0.697386 -0.554247
-0.985712 0.438125 1.72552 56 62 74 0.089755 0.847682 -0.522856
-0.982697 0.437819 1.72552 56 62 74 0.075464 0.832949 -0.54818
-0.931439 0.40827 1.72552 42 49 56 0.659401 0.612659 -0.435706
-0.933244 0.410213 1.72552 42 49 56 0.664699 0.577635 -0.473828
-0.977579 0.434334 1.72552 53 57 69 0.510423 0.694509 -0.507076
-0.925409 0.402162 1.72552 33 46 58 0.664051 0.597144 -0.449949
-0.927376 0.404183 1.72552 33 46 58 0.644217 0.620791 -0.446769
-0.922394 0.399373 1.72552 30 46 59 0.648267 0.671244 -0.359419
-0.9244 0.401168 1.72552 30 46 59 0.62271 0.675566 -0.394769
-0.92124 0.398153 1.72552 30 46 59 0.763128 0.571146 -0.302371
-0.928424 0.405177 1.72552 33 46 57 0.62256 0.662404 -0.4167
-0.930451 0.407198 1.72552 33 46 57 0.665629 0.619151 -0.416641
-0.912551 0.380062 1.72552 56 71 80 0.878773 0.06208 -0.473185
-0.913348 0.385229 1.72552 43 57 68 0.770419 0.312332 -0.555791
-0.916364 0.389039 1.72552 33 49 62 0.614131 0.482892 -0.624226
-0.913855 0.386092 1.72552 43 57 68 0.596024 0.471783 -0.649751
-0.916432 0.389108 1.72552 33 49 62 0.697369 0.419084 -0.581417
-0.919379 0.395314 1.72552 31 47 60 0.79199 0.543214 -0.278692
-0.918226 0.392123 1.72552 32 48 62 0.770792 0.384585 -0.507911
-0.919286 0.395138 1.72552 33 48 62 0.882068 0.319239 -0.346473
-0.976666 0.433579 1.72552 46 59 73 0.431757 0.777163 -0.457825
-0.973651 0.431962 1.72552 46 59 73 0.337306 0.79131 -0.509955
-0.937469 0.414603 1.72552 40 48 55 0.521071 0.678565 -0.51772
-0.9435 0.418577 1.72552 43 53 62 0.518062 0.741733 -0.425962
-0.944445 0.419259 1.72552 43 53 62 0.601337 0.67463 -0.428099
-0.940012 0.416244 1.72552 40 48 55 0.439456 0.76619 -0.468862
-0.946515 0.421373 1.72552 43 53 62 0.660476 0.617221 -0.427563
-0.934454 0.41154 1.72552 38 47 56 0.629964 0.565786 -0.532007
-0.936022 0.413229 1.72552 38 47 56 0.611022 0.611022 -0.503294
-0.940485 0.416511 1.72552 41 51 60 0.507027 0.749875 -0.424984
-0.947267 0.422274 1.72552 43 53 62 0.659401 0.612659 -0.435706
-0.95556 0.427634 1.72552 44 57 67 0.392063 0.894256 -0.215855
-0.957176 0.428304 1.72552 44 57 67 0.375297 0.901005 -0.217585
-0.967621 0.430592 1.72552 47 55 64 0.143372 0.93806 -0.315418
-0.964606 0.430227 1.72552 47 55 64 0.137909 0.949298 -0.282513
-0.961591 0.42976 1.72552 47 55 64 0.237547 0.940464 -0.243104
-0.958575 0.428839 1.72552 47 55 64 0.333079 0.919184 -0.21014
-0.94953 0.424807 1.72552 36 49 63 0.62773 0.62773 -0.460336
-0.950284 0.425289 1.72552 36 49 63 0.448953 0.748255 -0.488421
-0.952545 0.426273 1.72552 41 55 67 0.400205 0.879852 -0.256311
-0.988727 0.438451 1.72552 62 70 82 0.006456 0.918054 -0.396403
-0.970636 0.431146 1.72552 48 60 72 0.167362 0.93363 -0.316742
-0.971437 0.431319 1.72552 48 60 72 0.23263 0.868986 -0.436744
-1.00682 0.440365 1.72405 82 63 64 0.205869 0.895018 -0.395677
-0.931439 0.407198 1.72371 42 49 56 0.667229 0.644164 -0.373977
-0.934454 0.410213 1.72354 42 49 56 0.656706 0.640165 -0.398655
-0.985712 0.43735 1.72449 56 62 74 0.100837 0.781854 -0.615253
-0.982697 0.43735 1.7246 56 62 74 0.23008 0.724674 -0.649546
-0.925409 0.401168 1.7243 34 46 58 0.648273 0.624942 -0.43496
-0.928424 0.404183 1.72374 34 46 58 0.671678 0.642118 -0.369505
-0.922394 0.398153 1.72332 30 46 59 0.640445 0.660304 -0.392211
-0.916364 0.386092 1.7231 33 49 62 0.646218 0.468298 -0.602577
-0.919379 0.392123 1.72352 32 48 62 0.873015 0.251802 -0.41766
-0.979681 0.434334 1.72334 57 61 73 0.478877 0.650264 -0.589774
-0.919379 0.395138 1.72526 33 48 62 0.871648 0.340416 -0.352628
-0.937469 0.413229 1.72365 40 48 55 0.598823 0.672217 -0.435356
-0.973651 0.431319 1.72419 46 59 73 0.329699 0.842217 -0.426578
-0.940485 0.416244 1.72507 40 48 55 0.50034 0.756251 -0.421598
-0.958575 0.428304 1.72322 44 57 67 0.323762 0.916606 -0.234547
-0.952545 0.425289 1.72349 38 52 65 0.483594 0.744371 -0.460487
-0.988727 0.43735 1.72374 62 70 82 0.117934 0.83136 -0.543077
-0.913348 0.383077 1.72461 52 67 77 0.787302 0.181217 -0.589335
-0.9435 0.420424 1.72853 40 51 63 0.63441 0.699311 -0.329374
-0.945543 0.422274 1.72853 40 51 63 0.65468 0.699499 -0.286523
-0.95556 0.428193 1.72853 42 56 71 0.392082 0.903367 -0.17378
-0.910866 0.377047 1.72853 55 72 81 0.87638 0.070833 -0.476384
-0.955796 0.428304 1.72853 42 56 71 0.389251 0.903464 -0.179544
-0.911003 0.380062 1.72853 56 74 83 0.89547 0.055712 -0.44162
-0.964606 0.431207 1.72853 42 56 71 0.191535 0.932508 -0.306176
-0.911207 0.383077 1.72853 46 61 71 0.921439 0.191082 -0.338286
-0.96525 0.431319 1.72853 42 56 71 0.175669 0.923319 -0.341501
-0.912074 0.386092 1.72853 41 55 65 0.892054 0.278488 -0.355928
-0.919379 0.396871 1.72853 37 51 62 0.742672 0.609086 -0.278303
-0.920287 0.398153 1.72853 37 51 62 0.769946 0.595736 -0.228651
-0.922394 0.400743 1.72853 28 45 57 0.752874 0.611415 -0.243623
-0.922734 0.401168 1.72853 28 45 57 0.697062 0.625234 -0.35098
-0.925128 0.404183 1.72853 33 47 59 0.742273 0.556297 -0.373584
-0.928424 0.407102 1.72853 36 45 58 0.591441 0.674742 -0.441498
-0.928519 0.407198 1.72853 36 45 58 0.674039 0.597482 -0.434381
-0.925409 0.404509 1.72853 36 45 58 0.647129 0.620374 -0.443125
-0.930974 0.410213 1.72853 36 45 58 0.67738 0.560302 -0.476675
-0.913348 0.389603 1.72853 33 48 61 0.71796 0.607254 -0.340258
-0.915807 0.392123 1.72853 33 48 61 0.68324 0.634086 -0.362101
-0.913061 0.389108 1.72853 35 49 62 0.876674 0.308431 -0.369206
-0.916364 0.39286 1.72853 32 47 60 0.738314 0.551689 -0.387983
-0.91809 0.395138 1.72853 32 47 60 0.76464 0.500521 -0.40596
-0.973651 0.434189 1.72853 48 60 72 0.327432 0.75648 -0.56615
-0.974032 0.434334 1.72853 48 60 72 0.351111 0.758853 -0.54851
-0.970636 0.432881 1.72853 48 60 72 0.296342 0.793944 -0.530881
-0.967621 0.431857 1.72853 48 60 72 0.286389 0.84059 -0.45977
-0.961591 0.430579 1.72853 42 56 71 0.229808 0.931919 -0.280563
-0.958575 0.429566 1.72853 44 59 73 0.355836 0.907745 -0.222216
-0.952545 0.426939 1.72853 37 51 66 0.388722 0.91259 -0.126787
-0.94953 0.425707 1.72853 37 51 66 0.414398 0.906751 -0.077956
-0.946515 0.423244 1.72853 37 50 64 0.63911 0.743832 -0.195583
-0.94879 0.425289 1.72853 37 50 64 0.630034 0.770367 -0.09794
-0.985712 0.439847 1.72853 63 56 68 -0.039057 0.895622 -0.443097
-0.982697 0.440061 1.72853 63 56 68 0.207824 0.780496 -0.589606
-0.979681 0.438435 1.72853 73 59 68 0.510581 0.731997 -0.451095
-0.976666 0.435603 1.72853 43 55 70 0.481954 0.69875 -0.528648
-0.978501 0.43735 1.72853 43 55 70 0.544707 0.704621 -0.454756
-0.931439 0.41082 1.72853 36 49 60 0.707129 0.547401 -0.447571
-0.933032 0.413229 1.72853 36 49 60 0.690081 0.533016 -0.489573
-0.934454 0.414784 1.72853 38 50 60 0.599987 0.676439 -0.427137
-0.936512 0.416244 1.72853 38 50 60 0.533341 0.716106 -0.450266
-0.940485 0.418201 1.72853 41 52 63 0.428473 0.807199 -0.406006
-0.94223 0.419259 1.72853 41 52 63 0.536849 0.760671 -0.364928
-0.937469 0.417077 1.72853 41 52 63 0.442892 0.827468 -0.345172
-0.9435 0.419259 1.7267 40 51 63 0.561897 0.711073 -0.422666
-0.946515 0.422274 1.72681 40 51 63 0.648744 0.645426 -0.403184
-0.967621 0.431319 1.72743 42 56 71 0.161718 0.918278 -0.361405
-0.94953 0.425289 1.72654 37 51 66 0.546786 0.789452 -0.278908
-0.913348 0.386092 1.7261 49 64 74 0.819179 0.309747 -0.482703
-0.979681 0.43735 1.72766 63 56 68 0.508078 0.672407 -0.538261
-0.931439 0.410213 1.72793 36 46 56 0.673468 0.54247 -0.502162
-0.976666 0.434334 1.72684 43 55 70 0.451515 0.735986 -0.50444
-0.925409 0.404183 1.72808 30 46 60 0.610437 0.647231 -0.456573
-0.937469 0.416244 1.72764 39 50 61 0.409502 0.741709 -0.531202
-0.916364 0.389108 1.72557 33 48 61 0.553897 0.483614 -0.677729
-0.934454 0.413229 1.72698 38 49 58 0.582834 0.559183 -0.589592
-0.913348 0.389108 1.72804 35 50 62 0.591255 0.470659 -0.654903
-0.916364 0.392123 1.72773 31 47 61 0.634049 0.499503 -0.590321
-0.970636 0.431319 1.72589 48 60 72 0.253076 0.845121 -0.470875
-0.9435 0.421565 1.73155 40 51 63 0.535454 0.765165 -0.357508
-0.944435 0.422274 1.73155 40 51 63 0.615319 0.747511 -0.250219
-0.967621 0.433547 1.73155 42 56 71 0.372521 0.825887 -0.423247
-0.964606 0.432317 1.73155 42 56 71 0.276544 0.874967 -0.397437
-0.961591 0.431577 1.73155 42 56 71 0.234932 0.906166 -0.351668
-0.958575 0.430226 1.73155 43 58 72 0.443975 0.862189 -0.243959
-0.960902 0.431319 1.73155 43 58 72 0.385346 0.855808 -0.345109
-0.908697 0.377047 1.73155 59 75 85 0.848158 0.209403 -0.486599
-0.95556 0.428608 1.73155 43 57 71 0.454993 0.866725 -0.204374
-0.909432 0.380062 1.73155 48 65 75 0.850213 0.245753 -0.465557
-0.952545 0.427218 1.73155 37 51 66 0.419644 0.895144 -0.150384
-0.910333 0.382256 1.73155 46 60 71 0.870854 0.290285 -0.396672
-0.954916 0.428304 1.73155 37 51 66 0.412635 0.893319 -0.178085
-0.910679 0.383077 1.73155 46 60 71 0.943667 0.187638 -0.272554
-0.94953 0.425766 1.73155 37 51 66 0.429844 0.894921 -0.119793
-0.91111 0.386092 1.73155 43 58 68 0.930803 0.230229 -0.283902
-0.946515 0.423815 1.73155 37 51 65 0.53698 0.799991 -0.267707
-0.948746 0.425289 1.73155 37 51 65 0.569171 0.811623 -0.131575
-0.919379 0.397937 1.73155 37 51 62 0.677746 0.684125 -0.269504
-0.919586 0.398153 1.73155 37 51 62 0.76671 0.609357 -0.20209
-0.921982 0.401168 1.73155 30 46 58 0.744655 0.538443 -0.394422
-0.979681 0.439544 1.73155 52 54 68 0.50091 0.803046 -0.322809
-0.980639 0.440365 1.73155 52 54 68 0.467462 0.837083 -0.284204
-0.922394 0.401953 1.73155 29 46 58 0.785713 0.435787 -0.439027
-0.923618 0.404183 1.73155 29 46 58 0.752654 0.516527 -0.408303
-0.925409 0.406599 1.73155 36 45 58 0.723031 0.558331 -0.406808
-0.985712 0.441141 1.73155 56 53 61 -0.037475 0.936887 -0.347617
-0.982697 0.441071 1.73155 56 53 61 0.143489 0.936097 -0.321143
-0.925943 0.407198 1.73155 36 45 58 0.608435 0.618548 -0.497198
-0.928424 0.40983 1.73155 36 45 58 0.647313 0.569972 -0.506081
-0.928787 0.410213 1.73155 36 45 58 0.664208 0.5839 -0.466786
-0.973651 0.436266 1.73155 39 56 71 0.353858 0.773964 -0.525132
-0.975726 0.43735 1.73155 39 56 71 0.391726 0.791512 -0.469104
-0.913348 0.391042 1.73155 33 48 61 0.754039 0.563511 -0.337461
-0.976666 0.43781 1.73155 35 48 66 0.45053 0.813501 -0.367747
-0.914341 0.392123 1.73155 33 48 61 0.708205 0.593183 -0.382858
-0.970636 0.435035 1.73155 42 57 73 0.274565 0.760211 -0.588807
-0.969076 0.434334 1.73155 42 57 73 0.415076 0.746481 -0.520076
-0.91209 0.389108 1.73155 35 49 62 0.876819 0.377078 -0.29833
-0.931439 0.41319 1.73155 38 50 60 0.661781 0.591414 -0.460734
-0.931474 0.413229 1.73155 38 50 60 0.685712 0.643364 -0.340413
-0.934454 0.416087 1.73155 38 50 60 0.657007 0.69556 -0.290754
-0.916364 0.394921 1.73155 32 47 60 0.749197 0.5468 -0.373783
-0.934662 0.416244 1.73155 38 50 60 0.540346 0.787542 -0.296319
-0.916545 0.395138 1.73155 32 47 60 0.715356 0.618029 -0.326047
-0.937469 0.417962 1.73155 41 52 63 0.473117 0.836099 -0.277666
-0.939767 0.419259 1.73155 41 52 63 0.461153 0.819299 -0.340714
-0.940485 0.419658 1.73155 41 52 63 0.510598 0.781199 -0.35919
-0.99128 0.440365 1.73155 67 53 61 -0.103476 0.936656 -0.334616
-0.988727 0.440867 1.73155 67 53 61 -0.119788 0.921125 -0.370378
-0.95556 0.428304 1.72942 42 56 71 0.419987 0.897951 -0.131511
-0.964606 0.431319 1.72885 42 56 71 0.21287 0.918629 -0.332878
-0.961591 0.431319 1.7308 42 56 71 0.297952 0.914203 -0.274697
-0.985712 0.440365 1.72975 63 56 68 -0.122368 0.901588 -0.414927
-0.982697 0.440365 1.72885 63 56 68 0.180582 0.914287 -0.362587
-0.910333 0.380062 1.72995 49 67 76 0.881418 0.151969 -0.447222
-0.976666 0.43735 1.73068 38 52 68 0.500743 0.73872 -0.451164
-0.973651 0.434334 1.7287 39 56 71 0.310159 0.787328 -0.532838
-0.922394 0.401168 1.73001 30 46 58 0.7813 0.575449 -0.24172
-0.970636 0.434334 1.73046 42 57 73 0.340265 0.762773 -0.549906
-0.928424 0.407198 1.72866 36 45 58 0.621255 0.597685 -0.506769
-0.940485 0.419259 1.73071 41 52 63 0.482703 0.786209 -0.38584
-0.991742 0.440264 1.73155 67 53 61 -0.132293 0.967152 -0.217063
-0.919379 0.400224 1.73457 27 45 61 0.711715 0.542496 -0.446273
-0.919979 0.401168 1.73457 27 45 61 0.761347 0.456808 -0.460083
-0.921911 0.404183 1.73457 29 46 62 0.779716 0.494414 -0.384184
-0.925409 0.408821 1.73457 30 46 60 0.677245 0.657756 -0.32969
-0.926923 0.410213 1.73457 30 46 60 0.655397 0.658682 -0.369585
-0.922394 0.405042 1.73457 32 45 59 0.75933 0.545617 -0.35457
-0.923993 0.407198 1.73457 32 45 59 0.725734 0.56446 -0.393312
-0.966174 0.434334 1.73457 39 54 69 0.301466 0.809697 -0.503496
-0.910333 0.386936 1.73457 31 46 58 0.875282 0.418874 -0.241716
-0.967621 0.434868 1.73457 39 54 69 0.555535 0.69567 -0.455439
-0.91113 0.389108 1.73457 31 46 58 0.894486 0.357498 -0.268494
-0.931439 0.414692 1.73457 39 50 61 0.622016 0.727551 -0.289421
-0.909961 0.386092 1.73457 31 46 58 0.866765 0.38199 -0.320626
-0.933404 0.416244 1.73457 39 50 61 0.588371 0.77253 -0.238782
-0.91218 0.392123 1.73457 31 46 58 0.883834 0.405524 -0.233213
-0.937469 0.418962 1.73457 39 50 61 0.530266 0.805566 -0.264351
-0.937915 0.419259 1.73457 39 50 61 0.508746 0.803533 -0.309051
-0.913348 0.393739 1.73457 25 42 58 0.74981 0.610897 -0.254146
-0.914934 0.395138 1.73457 25 42 58 0.667816 0.641433 -0.377605
-0.916364 0.39657 1.73457 25 42 58 0.704983 0.637227 -0.311354
-0.940485 0.421034 1.73457 39 50 61 0.531052 0.738212 -0.415964
-0.917729 0.398153 1.73457 25 42 58 0.716572 0.59195 -0.368944
-0.942122 0.422274 1.73457 39 50 61 0.456085 0.76995 -0.446277
-0.907952 0.380062 1.73457 49 66 75 0.943946 0.14491 -0.296591
-0.934454 0.41698 1.73457 39 50 61 0.537132 0.809567 -0.236833
-0.908638 0.383077 1.73457 42 58 68 0.850548 0.308304 -0.426048
-0.964606 0.433842 1.73457 42 56 71 0.276708 0.842492 -0.462211
-0.961591 0.432825 1.73457 42 56 71 0.363826 0.856153 -0.366923
-0.928424 0.411782 1.73457 30 43 59 0.676155 0.653345 -0.340521
-0.929867 0.413229 1.73457 30 43 59 0.662002 0.662002 -0.351433
-0.9435 0.423115 1.73457 36 50 65 0.49853 0.78571 -0.366234
-0.95556 0.429457 1.73457 42 56 71 0.467841 0.834653 -0.290652
-0.958359 0.431319 1.73457 42 56 71 0.532843 0.809362 -0.247003
-0.958575 0.431446 1.73457 44 57 71 0.432641 0.872767 -0.226051
-0.952545 0.4279 1.73457 36 51 66 0.431254 0.870022 -0.238918
-0.953351 0.428304 1.73457 36 51 66 0.428763 0.862103 -0.270075
-0.94953 0.426416 1.73457 36 51 66 0.412575 0.860426 -0.299079
-0.946515 0.424938 1.73457 35 50 65 0.47965 0.815246 -0.324515
-0.947184 0.425289 1.73457 35 50 65 0.438999 0.832367 -0.338297
-0.988727 0.44194 1.73457 67 53 61 -0.156163 0.895431 -0.416913
-0.985712 0.442237 1.73457 67 53 61 -0.040809 0.922813 -0.383079
-0.976666 0.43911 1.73457 40 54 69 0.373733 0.884051 -0.280675
-0.979569 0.440365 1.73457 40 54 69 0.392936 0.910324 -0.130046
-0.973651 0.438058 1.73457 40 54 69 0.182824 0.919789 -0.347224
-0.969906 0.43735 1.73457 44 57 71 0.616087 0.656157 -0.435769
-0.970636 0.437828 1.73457 40 54 69 0.269314 0.912755 -0.307163
-0.919379 0.398153 1.73192 37 51 62 0.683284 0.596834 -0.42061
-0.967621 0.434334 1.73336 39 54 69 0.47831 0.779888 -0.403726
-0.931439 0.413229 1.73161 39 50 61 0.66926 0.646239 -0.366695
-0.934454 0.416244 1.73202 39 50 61 0.58971 0.758199 -0.278165
-0.9435 0.422274 1.73291 39 50 61 0.523246 0.761234 -0.383062
-0.928424 0.410213 1.73208 30 43 59 0.66373 0.630626 -0.40221
-0.922394 0.404183 1.73351 29 46 63 0.751041 0.478234 -0.455226
-0.925409 0.407198 1.73221 30 46 60 0.674039 0.597482 -0.434381
-0.913348 0.392123 1.73272 32 47 60 0.743885 0.499772 -0.443692
-0.910333 0.383077 1.73208 40 54 65 0.793282 0.285455 -0.537791
-0.910333 0.386092 1.73358 31 46 58 0.880039 0.282277 -0.381904
-0.916364 0.395138 1.73188 25 42 58 0.690653 0.61483 -0.380766
-0.958575 0.431319 1.73421 42 56 71 0.444528 0.830937 -0.334574
-0.979681 0.440365 1.7343 67 53 61 0.488465 0.845361 -0.216255
-0.973651 0.43735 1.7333 40 54 69 0.263455 0.809072 -0.525351
-0.970636 0.43735 1.73389 44 55 71 0.223223 0.744597 -0.629083
-0.907318 0.382944 1.73758 43 55 64 0.945912 -0.001243 -0.324419
-0.907297 0.383077 1.73758 43 55 64 0.913864 -0.001289 -0.406019
-0.907318 0.38316 1.73758 43 55 64 0.822054 0.468618 -0.323457
-0.919379 0.402532 1.73758 29 47 64 0.796412 0.513455 -0.319519
-0.920427 0.404183 1.73758 29 47 64 0.781667 0.521646 -0.341879
-0.925409 0.410047 1.73758 30 46 60 0.694464 0.665727 -0.272996
-0.925595 0.410213 1.73758 30 46 60 0.679801 0.666883 -0.305184
-0.922394 0.40685 1.73758 33 46 61 0.748326 0.560027 -0.355496
-0.922702 0.407198 1.73758 33 46 61 0.702401 0.631026 -0.329301
-0.910333 0.388543 1.73758 31 45 58 0.83894 0.499116 -0.216941
-0.990019 0.45544 1.73758 53 57 69 0.445098 -0.313911 -0.838658
-0.910643 0.389108 1.73758 31 45 58 0.921642 0.362818 -0.137621
-0.989644 0.458455 1.73758 53 57 69 0.527307 -0.120569 -0.841077
-0.908848 0.386092 1.73758 31 46 58 0.838663 0.471072 -0.273376
-0.911871 0.392123 1.73758 31 46 58 0.880112 0.45374 -0.139723
-0.967621 0.43717 1.73758 42 55 69 0.329671 0.763872 -0.554812
-0.964606 0.435835 1.73758 42 55 69 0.377551 0.841264 -0.38695
-0.913348 0.394535 1.73758 25 42 58 0.827534 0.53827 -0.159543
-0.961765 0.434334 1.73758 34 51 69 0.393303 0.816859 -0.421964
-0.913831 0.395138 1.73758 25 42 58 0.72148 0.631895 -0.283153
-0.916364 0.398089 1.73758 25 42 58 0.723123 0.616829 -0.31083
-0.931439 0.415694 1.73758 39 50 61 0.610945 0.752294 -0.246577
-0.916404 0.398153 1.73758 25 42 58 0.75092 0.573283 -0.327821
-0.932197 0.416244 1.73758 39 50 61 0.568884 0.787087 -0.238464
-0.918567 0.401168 1.73758 23 39 55 0.776384 0.535271 -0.332736
-0.907318 0.378245 1.73758 50 67 77 0.790036 0.371687 -0.487537
-0.907643 0.380062 1.73758 50 67 77 0.984919 0.001131 -0.173011
-0.961591 0.434227 1.73758 42 56 71 0.516247 0.775179 -0.364124
-0.95556 0.430555 1.73758 42 56 71 0.403474 0.84901 -0.341162
-0.957008 0.431319 1.73758 42 56 71 0.499259 0.780395 -0.376464
-0.958575 0.432204 1.73758 37 54 70 0.45881 0.783057 -0.4199
-0.94953 0.427981 1.73758 36 51 66 0.390562 0.8146 -0.428821
-0.950236 0.428304 1.73758 36 51 66 0.353876 0.820421 -0.449089
-0.9435 0.424552 1.73758 35 50 65 0.425264 0.803989 -0.415635
-0.944554 0.425289 1.73758 35 50 65 0.495044 0.777463 -0.38792
-0.946515 0.426533 1.73758 35 50 65 0.45718 0.776067 -0.434403
-0.952545 0.429201 1.73758 38 52 67 0.347023 0.851217 -0.393707
-0.991006 0.44338 1.73758 67 53 61 -0.140017 0.709116 -0.69105
-0.988727 0.443863 1.73758 67 53 61 -0.040775 0.606005 -0.794415
-0.985712 0.44373 1.73758 67 53 61 0.179373 0.734356 -0.654635
-0.976666 0.439761 1.73758 40 54 69 0.236009 0.942656 -0.236009
-0.978601 0.440365 1.73758 40 54 69 0.34197 0.925412 -0.163308
-0.973651 0.439267 1.73758 40 54 69 0.169069 0.94814 -0.269158
-0.967936 0.43735 1.73758 40 56 70 0.544749 0.756144 -0.362624
-0.970636 0.438641 1.73758 40 54 69 0.251847 0.926284 -0.280304
-0.937469 0.4201 1.73758 39 50 61 0.657374 0.705125 -0.265815
-0.93923 0.422274 1.73758 39 50 61 0.678638 0.681831 -0.273052
-0.934454 0.41781 1.73758 39 50 61 0.55885 0.78049 -0.280217
-0.936497 0.419259 1.73758 39 50 61 0.572495 0.753113 -0.324145
-0.928424 0.413227 1.73758 30 43 59 0.696975 0.661887 -0.275919
-0.928426 0.413229 1.73758 30 43 59 0.631657 0.727122 -0.268892
-0.940485 0.423176 1.73758 36 50 65 0.515568 0.805674 -0.291682
-0.907318 0.383077 1.73753 43 55 64 0.913864 0.001289 -0.406019
-0.919379 0.401168 1.73567 29 46 63 0.770144 0.513969 -0.377776
-0.964606 0.434334 1.73523 42 56 71 0.331013 0.812487 -0.47989
-0.952545 0.428304 1.73552 36 51 66 0.379613 0.836409 -0.395365
-0.946515 0.425289 1.73523 35 50 65 0.471462 0.78253 -0.406657
-0.988727 0.44338 1.73711 67 53 61 -0.062826 0.861414 -0.504004
-0.985712 0.44338 1.73694 67 53 61 0.047292 0.895845 -0.441842
-0.937469 0.419259 1.7355 39 50 61 0.591751 0.73442 -0.332353
-0.940485 0.422274 1.73595 39 50 61 0.485364 0.727217 -0.485364
-0.919379 0.404227 1.74059 28 45 65 0.79255 0.501148 -0.347441
-0.92117 0.407198 1.74059 28 45 65 0.776882 0.532397 -0.336166
-0.922394 0.408698 1.74059 33 55 75 0.682542 0.646704 -0.340456
-0.924123 0.410213 1.74059 33 55 75 0.635166 0.696896 -0.333016
-0.908001 0.386092 1.74059 30 44 57 0.771761 0.478068 -0.419329
-0.910052 0.389108 1.74059 30 44 57 0.740425 0.493067 -0.456788
-0.910333 0.389674 1.74059 28 42 56 0.718888 0.411502 -0.560237
-0.91129 0.392123 1.74059 28 42 56 0.851658 0.435839 -0.291073
-0.913348 0.395753 1.74059 34 44 55 0.783536 0.499201 -0.369958
-0.91497 0.398153 1.74059 34 44 55 0.739885 0.563489 -0.367493
-0.912946 0.395138 1.74059 34 44 55 0.81705 0.464846 -0.341098
-0.916364 0.399854 1.74059 23 37 54 0.750608 0.559309 -0.351797
-0.917281 0.401168 1.74059 23 37 54 0.773077 0.52453 -0.35668
-0.91935 0.404183 1.74059 23 37 54 0.772208 0.530389 -0.349831
-0.95556 0.432394 1.74059 42 56 73 0.475224 0.754768 -0.452203
-0.957798 0.434334 1.74059 42 56 73 0.530616 0.713587 -0.457428
-0.9435 0.426093 1.74059 38 51 67 0.537079 0.706683 -0.460591
-0.94639 0.428304 1.74059 38 51 67 0.526239 0.699981 -0.482803
-0.952545 0.430585 1.74059 39 54 69 0.238009 0.827658 -0.508265
-0.907318 0.385124 1.74059 42 53 62 0.746437 0.499273 -0.439953
-0.964606 0.436526 1.74059 37 50 66 0.360212 0.911293 -0.19948
-0.965898 0.43735 1.74059 37 50 66 0.488605 0.837828 -0.243537
-0.961591 0.43564 1.74059 39 50 65 0.318017 0.913393 -0.254124
-0.905956 0.383077 1.74059 51 60 68 0.819034 0.30026 -0.488905
-0.967621 0.438454 1.74059 39 50 65 0.412625 0.880366 -0.233871
-0.958575 0.434705 1.74059 35 51 70 0.326127 0.924733 -0.196241
-0.937469 0.421281 1.74059 33 48 62 0.53602 0.74256 -0.401605
-0.938686 0.422274 1.74059 33 48 62 0.660343 0.713672 -0.233708
-0.934454 0.419159 1.74059 35 49 64 0.58407 0.73939 -0.33491
-0.934586 0.419259 1.74059 35 49 64 0.556948 0.760355 -0.334169
-0.931439 0.416775 1.74059 35 49 64 0.594618 0.730716 -0.335384
-0.925409 0.411439 1.74059 29 43 60 0.629477 0.70715 -0.32202
-0.927437 0.413229 1.74059 29 43 60 0.66336 0.695329 -0.276533
-0.928424 0.414177 1.74059 29 43 60 0.63438 0.720669 -0.279639
-0.930773 0.416244 1.74059 29 43 60 0.62202 0.721672 -0.303777
-0.940485 0.423898 1.74059 34 49 65 0.60108 0.718364 -0.350223
-0.942293 0.425289 1.74059 34 49 65 0.523596 0.786194 -0.328248
-0.95406 0.431319 1.74059 39 54 69 0.405246 0.769804 -0.49313
-0.94953 0.429944 1.74059 39 52 67 0.331376 0.782815 -0.526679
-0.946515 0.428394 1.74059 33 54 74 0.390697 0.747064 -0.537821
-0.979681 0.441153 1.74059 79 52 58 0.452367 0.827501 -0.332576
-0.982241 0.44338 1.74059 79 52 58 0.62577 0.665607 -0.406668
-0.976666 0.440347 1.74059 67 46 55 0.149897 0.96325 -0.22289
-0.976748 0.440365 1.74059 67 46 55 0.27078 0.928591 -0.253767
-0.973651 0.439899 1.74059 67 46 55 0.153337 0.953355 -0.260006
-0.970636 0.439478 1.74059 36 50 69 0.270974 0.929256 -0.251112
-0.922394 0.407198 1.7381 27 40 59 0.717632 0.593395 -0.364537
-0.919379 0.404183 1.74052 28 45 65 0.807512 0.51473 -0.28806
-0.925409 0.410213 1.73796 33 55 75 0.665217 0.678165 -0.312377
-0.910333 0.389108 1.7396 30 43 56 0.891485 0.418926 -0.172499
-0.913348 0.395138 1.73927 34 44 55 0.830067 0.517464 -0.207896
-0.916364 0.398153 1.73769 34 44 55 0.737918 0.585469 -0.335712
-0.961591 0.434334 1.73777 42 56 73 0.387296 0.776213 -0.497489
-0.95556 0.431319 1.7392 42 56 73 0.471966 0.754817 -0.455521
-0.958575 0.434334 1.74005 42 56 73 0.374364 0.769795 -0.516978
-0.967621 0.43735 1.7379 37 50 66 0.428175 0.845451 -0.319185
-0.94953 0.428304 1.73815 39 52 67 0.384184 0.779716 -0.494414
-0.9435 0.425289 1.73904 38 51 67 0.460398 0.803691 -0.376981
-0.931439 0.416244 1.73918 32 48 64 0.592297 0.757442 -0.274712
-0.946515 0.428304 1.74047 38 51 67 0.384536 0.777185 -0.498112
-0.928424 0.413229 1.73758 29 43 60 0.677083 0.702102 -0.220482
-0.982697 0.44338 1.73938 79 52 58 0.553507 0.786895 -0.272811
-0.907318 0.380062 1.73819 43 60 71 0.775564 0.148512 -0.613551
-0.922394 0.410159 1.74361 27 40 59 0.723907 0.62118 -0.300157
-0.922456 0.410213 1.74361 27 40 59 0.619569 0.710635 -0.333364
-0.907318 0.389733 1.74361 30 41 54 0.725618 0.493155 -0.479871
-0.90936 0.392123 1.74361 30 41 54 0.689004 0.555541 -0.465453
-0.910333 0.393409 1.74361 34 44 55 0.718383 0.519293 -0.462884
-0.911536 0.395138 1.74361 34 44 55 0.777586 0.478889 -0.407462
-0.913315 0.398153 1.74361 34 44 55 0.790494 0.467183 -0.396055
-0.905743 0.386092 1.74361 38 45 55 0.855989 0.379236 -0.351373
-0.906949 0.389108 1.74361 38 45 55 0.839616 0.353109 -0.412746
-0.913348 0.398205 1.74361 23 37 54 0.750465 0.513995 -0.415465
-0.915536 0.401168 1.74361 23 37 54 0.71727 0.551619 -0.425724
-0.916364 0.402158 1.74361 24 37 53 0.721447 0.532378 -0.442819
-0.91778 0.404183 1.74361 24 37 53 0.745272 0.518236 -0.419524
-0.904303 0.382952 1.74361 46 54 63 0.879204 0.266016 -0.395266
-0.95556 0.433979 1.74361 42 56 73 0.319968 0.83816 -0.441712
-0.964606 0.437286 1.74361 39 50 65 0.356941 0.908972 -0.215321
-0.956385 0.434334 1.74361 42 56 73 0.434092 0.844845 -0.312733
-0.96473 0.43735 1.74361 39 50 65 0.499535 0.849357 -0.170464
-0.961591 0.436115 1.74361 39 50 65 0.312114 0.933568 -0.176171
-0.952545 0.432872 1.74361 39 52 67 0.27364 0.814664 -0.511315
-0.904341 0.383077 1.74361 46 54 63 0.82401 0.379457 -0.420737
-0.967621 0.438931 1.74361 39 50 65 0.473935 0.834436 -0.281253
-0.94953 0.432253 1.74361 39 50 66 0.238469 0.823101 -0.5154
-0.946515 0.430557 1.74361 33 54 74 0.457428 0.713587 -0.530616
-0.947737 0.431319 1.74361 33 54 74 0.418946 0.713698 -0.561354
-0.9435 0.428328 1.74361 33 54 74 0.461272 0.635717 -0.618944
-0.958575 0.435149 1.74361 35 54 75 0.271493 0.920777 -0.280111
-0.979681 0.44316 1.74361 43 51 64 0.3528 0.73649 -0.577161
-0.979952 0.44338 1.74361 43 51 64 0.563411 0.607402 -0.560028
-0.931439 0.418166 1.74361 35 49 64 0.631326 0.693317 -0.347474
-0.982697 0.445918 1.74361 79 52 58 0.534958 0.592335 -0.602461
-0.983227 0.446395 1.74361 79 52 58 0.544365 0.527511 -0.652226
-0.970423 0.440365 1.74361 36 50 69 0.458271 0.736211 -0.497977
-0.976666 0.4418 1.74361 43 51 70 0.241307 0.795534 -0.555784
-0.932606 0.419259 1.74361 35 49 64 0.619675 0.68871 -0.376407
-0.934454 0.421069 1.74361 35 49 64 0.587835 0.684419 -0.431301
-0.973651 0.441161 1.74361 45 51 69 0.179386 0.821556 -0.541172
-0.936007 0.422274 1.74361 35 49 64 0.544186 0.678139 -0.493953
-0.925409 0.412758 1.74361 29 43 60 0.619081 0.719298 -0.315198
-0.970636 0.440444 1.74361 67 46 55 0.15578 0.757726 -0.633707
-0.925964 0.413229 1.74361 29 43 60 0.637227 0.704983 -0.311354
-0.928424 0.415469 1.74361 29 43 60 0.640274 0.698628 -0.319326
-0.929265 0.416244 1.74361 29 43 60 0.626727 0.710938 -0.319031
-0.937469 0.423302 1.74361 34 49 65 0.539476 0.670564 -0.509225
-0.939937 0.425289 1.74361 34 49 65 0.525528 0.606638 -0.596499
-0.940485 0.425717 1.74361 33 49 66 0.510327 0.597908 -0.618119
-0.943474 0.428304 1.74361 33 49 66 0.541252 0.628932 -0.558114
-0.907318 0.386092 1.74144 33 44 56 0.750096 0.348317 -0.562167
-0.907318 0.389108 1.74311 33 44 56 0.651525 0.399535 -0.644893
-0.910333 0.392123 1.7423 30 43 55 0.707012 0.46746 -0.530675
-0.913348 0.398153 1.74355 34 44 55 0.762776 0.507973 -0.400171
-0.916364 0.401168 1.74234 23 37 54 0.725356 0.546909 -0.41803
-0.9435 0.428304 1.74358 38 51 67 0.519858 0.690358 -0.503143
-0.952545 0.431319 1.74142 39 52 67 0.204133 0.78737 -0.581702
-0.94953 0.431319 1.74223 39 52 67 0.249639 0.761477 -0.598191
-0.937469 0.422274 1.74226 33 48 62 0.557225 0.684399 -0.470211
-0.934454 0.419259 1.74077 35 49 64 0.567195 0.709407 -0.418368
-0.976666 0.440365 1.74064 67 46 55 0.181855 0.888905 -0.420448
-0.973651 0.440365 1.74187 67 46 55 0.17597 0.908461 -0.379122
-0.940485 0.425289 1.74299 34 49 65 0.558219 0.698191 -0.448242
-0.970636 0.440365 1.74341 36 50 69 0.15203 0.938202 -0.310908
-0.976666 0.445937 1.74662 83 50 56 0.297098 0.426405 -0.854349
-0.977077 0.446395 1.74662 83 50 56 0.357091 0.008895 -0.934027
-0.967621 0.440954 1.74662 34 42 61 0.493478 0.358455 -0.792458
-0.970189 0.44338 1.74662 34 42 61 0.408882 0.483817 -0.773781
-0.970636 0.443597 1.74662 64 42 52 0.101649 0.421914 -0.900919
-0.928424 0.416968 1.74662 30 46 62 0.633073 0.656335 -0.410417
-0.930828 0.419259 1.74662 30 46 62 0.625387 0.65207 -0.428598
-0.961591 0.436768 1.74662 40 50 68 0.179937 0.930372 -0.319423
-0.92763 0.416244 1.74662 29 45 62 0.628344 0.674522 -0.387561
-0.963689 0.43735 1.74662 40 50 68 0.379613 0.836409 -0.395365
-0.931439 0.419861 1.74662 29 45 62 0.630712 0.65401 -0.417701
-0.964606 0.437892 1.74662 40 50 68 0.556448 0.70262 -0.443498
-0.967075 0.440365 1.74662 40 50 68 0.590138 0.603665 -0.536028
-0.937469 0.426026 1.74662 29 50 71 0.64592 0.605654 -0.464727
-0.93972 0.428304 1.74662 29 50 71 0.610794 0.614159 -0.49974
-0.934454 0.422816 1.74662 29 49 69 0.653547 0.626939 -0.424057
-0.936805 0.425289 1.74662 29 49 69 0.637595 0.627555 -0.446819
-0.93388 0.422274 1.74662 31 50 71 0.643501 0.653427 -0.398673
-0.940485 0.429032 1.74662 41 58 76 0.543624 0.661437 -0.516695
-0.943459 0.431319 1.74662 41 58 76 0.509847 0.661287 -0.550231
-0.9435 0.431347 1.74662 40 52 68 0.465635 0.766255 -0.442761
-0.958575 0.436625 1.74662 38 48 64 0.165577 0.894116 -0.416102
-0.95556 0.435536 1.74662 38 48 64 0.283552 0.859852 -0.424562
-0.952545 0.434687 1.74662 35 51 70 0.212422 0.854207 -0.47456
-0.951242 0.434334 1.74662 38 51 67 0.216336 0.848704 -0.482597
-0.925409 0.414159 1.74662 28 42 57 0.636036 0.67548 -0.373075
-0.922394 0.411615 1.74662 25 35 53 0.581372 0.734451 -0.350126
-0.924352 0.413229 1.74662 25 35 53 0.607254 0.71796 -0.340258
-0.920534 0.410213 1.74662 26 38 55 0.632142 0.645485 -0.428656
-0.903883 0.383077 1.74662 45 53 60 0.856457 0.391833 -0.336078
-0.904303 0.384042 1.74662 46 54 60 0.869343 0.424844 -0.252487
-0.905063 0.386092 1.74662 46 54 60 0.926105 0.310593 -0.214153
-0.919379 0.409026 1.74662 26 37 52 0.685256 0.568546 -0.45517
-0.907318 0.392073 1.74662 34 44 55 0.875575 0.391665 -0.282785
-0.907357 0.392123 1.74662 34 44 55 0.700071 0.567041 -0.434011
-0.909816 0.395138 1.74662 34 44 53 0.754146 0.58833 -0.291773
-0.910333 0.39586 1.74662 41 45 57 0.795155 0.536927 -0.281847
-0.911802 0.398153 1.74662 41 45 57 0.800206 0.487151 -0.349791
-0.906002 0.389108 1.74662 40 48 58 0.909903 0.377346 -0.172298
-0.913348 0.400629 1.74662 31 43 56 0.777463 0.495044 -0.38792
-0.913725 0.401168 1.74662 31 43 56 0.732603 0.53834 -0.416514
-0.915925 0.404183 1.74662 31 43 56 0.751437 0.539535 -0.379794
-0.916364 0.404849 1.74662 29 42 56 0.762686 0.494848 -0.416456
-0.918037 0.407198 1.74662 29 42 56 0.718984 0.529691 -0.449988
-0.94953 0.433907 1.74662 38 51 65 0.241908 0.850481 -0.46708
-0.946515 0.432997 1.74662 41 51 65 0.362262 0.784095 -0.503946
-0.904303 0.383077 1.74383 46 54 60 0.930969 0.335149 -0.144817
-0.967621 0.440365 1.74606 67 46 55 0.498387 0.662838 -0.558798
-0.976666 0.44338 1.74526 44 49 65 0.304349 0.543366 -0.782384
-0.973651 0.44338 1.74606 75 47 55 0.149804 0.691521 -0.706653
-0.919379 0.407198 1.74457 26 37 52 0.699893 0.556922 -0.4472
-0.928424 0.416244 1.74518 30 46 62 0.634711 0.690187 -0.347541
-0.922394 0.410213 1.74372 26 37 52 0.660985 0.631166 -0.405868
-0.970636 0.44338 1.74648 43 47 64 0.126814 0.684795 -0.717617
-0.931439 0.419259 1.74558 30 46 62 0.643368 0.666404 -0.376806
-0.910333 0.395138 1.74567 37 45 55 0.725658 0.530606 -0.438039
-0.916364 0.404183 1.74591 30 43 56 0.726571 0.514724 -0.455141
-0.937469 0.425289 1.74577 30 48 66 0.542922 0.607193 -0.580131
-0.940485 0.428304 1.7459 30 51 72 0.518165 0.578927 -0.629562
-0.95556 0.434334 1.74428 42 56 73 0.28998 0.838927 -0.460557
-0.934454 0.422274 1.7456 29 49 69 0.630209 0.656814 -0.414042
-0.952545 0.434334 1.74606 38 51 65 0.260059 0.838653 -0.478571
-0.9435 0.431319 1.74659 41 58 76 0.413039 0.665175 -0.622046
-0.946515 0.431319 1.7446 41 51 65 0.430814 0.673666 -0.600478
-0.964606 0.43735 1.74407 40 50 68 0.430879 0.889139 -0.154194
-0.925409 0.413229 1.74467 28 42 57 0.622322 0.706815 -0.336346
-0.961591 0.438264 1.74964 40 52 69 0.353151 0.730713 -0.584245
-0.963711 0.440365 1.74964 40 52 69 0.673398 0.41734 -0.610215
-0.95556 0.437044 1.74964 38 48 64 0.210366 0.866825 -0.452062
-0.956658 0.43735 1.74964 38 48 64 0.232018 0.850732 -0.471618
-0.958575 0.437785 1.74964 36 48 64 0.174131 0.843867 -0.507511
-0.902225 0.383077 1.74964 49 56 61 0.782966 0.481451 -0.393915
-0.964373 0.44338 1.74964 44 40 54 0.743832 0.195583 -0.63911
-0.904303 0.385998 1.74964 46 54 60 0.76559 0.538988 -0.351232
-0.904351 0.386092 1.74964 46 54 60 0.913876 0.380431 -0.141784
-0.928424 0.419029 1.74964 29 45 62 0.651174 0.641232 -0.405948
-0.928663 0.419259 1.74964 29 45 62 0.615189 0.655201 -0.438468
-0.952545 0.436442 1.74964 40 50 65 0.223778 0.866578 -0.446055
-0.907318 0.392675 1.74964 37 45 55 0.856335 0.468049 -0.218222
-0.94953 0.435543 1.74964 38 51 67 0.254971 0.870522 -0.420928
-0.946515 0.434675 1.74964 61 53 64 0.336841 0.862866 -0.376831
-0.945709 0.434334 1.74964 61 53 64 0.446699 0.818683 -0.360857
-0.908735 0.395138 1.74964 37 45 55 0.796307 0.553207 -0.244658
-0.910333 0.397309 1.74964 37 45 56 0.791071 0.552966 -0.261602
-0.910845 0.398153 1.74964 37 45 56 0.840887 0.478091 -0.25365
-0.90599 0.389108 1.74964 38 43 52 0.892851 0.409284 -0.187892
-0.907091 0.392123 1.74964 37 42 53 0.894686 0.368226 -0.252878
-0.913348 0.402538 1.74964 32 43 56 0.800658 0.537428 -0.264797
-0.931439 0.421805 1.74964 26 46 65 0.606611 0.653401 -0.452869
-0.914482 0.404183 1.74964 32 43 56 0.789202 0.517063 -0.331369
-0.931911 0.422274 1.74964 26 46 65 0.642607 0.632592 -0.432299
-0.912433 0.401168 1.74964 37 44 56 0.836517 0.474696 -0.273685
-0.925409 0.415967 1.74964 28 42 57 0.661374 0.667906 -0.341302
-0.925669 0.416244 1.74964 28 42 57 0.641556 0.654819 -0.399522
-0.916282 0.407198 1.74964 29 42 56 0.824815 0.522942 -0.21497
-0.922394 0.413037 1.74964 26 38 55 0.572242 0.758181 -0.312569
-0.916364 0.407453 1.74964 29 42 56 0.777849 0.581438 -0.238499
-0.922611 0.413229 1.74964 26 38 55 0.632756 0.691617 -0.348261
-0.919379 0.410703 1.74964 27 41 57 0.58605 0.792 -0.17112
-0.918417 0.410213 1.74964 29 42 56 0.716369 0.629439 -0.301036
-0.9435 0.433086 1.74964 47 53 64 0.486095 0.797324 -0.357753
-0.937469 0.428287 1.74964 30 50 70 0.662725 0.59929 -0.449051
-0.937487 0.428304 1.74964 30 50 70 0.614387 0.647869 -0.450327
-0.934454 0.424955 1.74964 27 46 69 0.654808 0.618152 -0.434873
-0.934761 0.425289 1.74964 27 46 69 0.660152 0.606672 -0.442887
-0.940485 0.431013 1.74964 40 52 68 0.60486 0.681088 -0.41263
-0.940875 0.431319 1.74964 40 52 68 0.531771 0.747752 -0.397601
-0.976666 0.446395 1.74675 75 47 55 0.052343 0.001026 -0.998629
-0.919379 0.410213 1.74834 26 37 52 0.606512 0.698557 -0.379686
-0.907318 0.392123 1.74694 34 44 55 0.872079 0.473987 -0.121719
-0.967621 0.44338 1.74748 47 41 54 0.432202 0.290698 -0.853637
-0.913348 0.401168 1.74741 31 43 56 0.787147 0.517818 -0.335059
-0.916364 0.407198 1.74942 29 42 57 0.770212 0.486878 -0.411974
-0.94953 0.434334 1.74741 38 51 65 0.231749 0.852777 -0.468043
-0.946515 0.434334 1.74883 41 51 65 0.273064 0.84079 -0.467448
-0.961591 0.43735 1.74797 40 50 68 0.306751 0.81643 -0.489229
-0.964606 0.440365 1.74868 38 48 68 0.547226 0.428192 -0.719164
-0.958575 0.43735 1.7483 38 48 64 0.197739 0.904979 -0.376714
-0.964606 0.44338 1.74946 49 35 46 0.542074 0.209195 -0.813875
-0.907318 0.394456 1.75266 35 43 54 0.845185 0.463389 -0.266333
-0.907787 0.395138 1.75266 35 43 54 0.799991 0.53698 -0.267707
-0.909965 0.398153 1.75266 35 43 54 0.786215 0.553029 -0.275727
-0.904303 0.388494 1.75266 39 44 53 0.795266 0.459738 -0.395213
-0.904634 0.389108 1.75266 39 44 53 0.832242 0.374272 -0.409015
-0.902828 0.386092 1.75266 41 47 56 0.79218 0.486877 -0.36797
-0.906135 0.392123 1.75266 38 43 53 0.801482 0.441698 -0.40315
-0.913348 0.403892 1.75266 33 42 55 0.812893 0.539368 -0.219742
-0.913541 0.404183 1.75266 33 42 55 0.813664 0.540911 -0.212993
-0.910333 0.398838 1.75266 37 43 55 0.834389 0.488912 -0.254481
-0.911542 0.401168 1.75266 37 43 55 0.835081 0.50227 -0.224419
-0.915664 0.407198 1.75266 32 42 54 0.811002 0.566957 -0.144343
-0.916364 0.408182 1.75266 30 42 55 0.76725 0.631766 -0.110449
-0.918107 0.410213 1.75266 30 42 55 0.716571 0.690086 -0.101526
-0.9435 0.433979 1.75266 49 52 66 0.518031 0.822393 -0.235189
-0.944018 0.434334 1.75266 49 52 66 0.496847 0.823925 -0.272565
-0.958575 0.439713 1.75266 49 47 59 0.241828 0.787891 -0.566345
-0.95983 0.440365 1.75266 49 47 59 0.35528 0.620512 -0.6991
-0.919379 0.411263 1.75266 30 43 58 0.643453 0.749433 -0.155943
-0.95556 0.438931 1.75266 44 47 59 0.265366 0.786676 -0.557425
-0.921814 0.413229 1.75266 30 43 58 0.619073 0.758017 -0.205328
-0.922394 0.413728 1.75266 30 43 60 0.714665 0.65128 -0.255124
-0.94953 0.436907 1.75266 63 53 61 0.266161 0.893646 -0.361324
-0.951164 0.43735 1.75266 63 53 61 0.297487 0.855469 -0.423881
-0.952545 0.437814 1.75266 63 53 61 0.299476 0.797017 -0.524479
-0.924654 0.416244 1.75266 30 43 60 0.724551 0.638937 -0.258429
-0.946515 0.435957 1.75266 58 56 62 0.38722 0.873144 -0.29611
-0.925409 0.41731 1.75266 24 40 59 0.782483 0.508211 -0.359781
-0.926725 0.419259 1.75266 24 40 59 0.704024 0.58861 -0.397353
-0.928424 0.421205 1.75266 26 44 63 0.636641 0.626615 -0.449492
-0.929501 0.422274 1.75266 26 44 63 0.609211 0.655945 -0.445642
-0.931439 0.424006 1.75266 34 54 71 0.599709 0.717363 -0.354596
-0.932947 0.425289 1.75266 34 54 71 0.634837 0.684049 -0.359249
-0.934454 0.4267 1.75266 45 57 71 0.6554 0.694047 -0.297909
-0.936103 0.428304 1.75266 45 57 71 0.67513 0.671907 -0.304533
-0.937469 0.429614 1.75266 58 59 67 0.641178 0.717546 -0.272063
-0.93952 0.431319 1.75266 58 59 67 0.61723 0.743518 -0.257311
-0.940485 0.432115 1.75266 61 59 64 0.5428 0.794533 -0.272187
-0.910333 0.398153 1.75149 35 43 54 0.835971 0.488035 -0.250945
-0.904303 0.386092 1.74977 39 44 53 0.784717 0.48701 -0.38346
-0.961591 0.440365 1.75153 42 49 64 0.527737 0.510984 -0.67852
-0.95556 0.43735 1.75014 49 47 59 0.268986 0.825615 -0.495991
-0.952545 0.43735 1.75171 63 53 61 0.224527 0.881751 -0.414854
-0.931439 0.422274 1.75023 42 48 61 0.616865 0.643612 -0.453036
-0.925409 0.416244 1.75036 33 46 62 0.711806 0.631103 -0.308288
-0.922394 0.413229 1.75045 30 43 58 0.662787 0.727076 -0.17909
-0.928424 0.419259 1.74996 32 48 66 0.643835 0.623768 -0.443159
-0.937469 0.428304 1.74967 52 52 60 0.66273 0.678934 -0.315972
-0.934454 0.425289 1.75015 43 54 68 0.663156 0.646701 -0.376831
-0.940485 0.431319 1.75039 61 59 64 0.623465 0.726041 -0.290096
-0.907318 0.396082 1.75567 35 43 54 0.776114 0.574608 -0.259754
-0.908806 0.398153 1.75567 35 43 54 0.791316 0.549044 -0.269016
-0.901611 0.386092 1.75567 37 42 51 0.858021 0.414377 -0.303465
-0.903027 0.389108 1.75567 37 42 51 0.856992 0.37658 -0.351785
-0.903889 0.392123 1.75567 39 44 53 0.893788 0.349485 -0.281075
-0.904303 0.392673 1.75567 38 42 51 0.747095 0.589643 -0.306871
-0.906664 0.395138 1.75567 38 42 51 0.721838 0.639342 -0.264938
-0.910333 0.400382 1.75567 37 43 55 0.795989 0.565044 -0.217088
-0.91084 0.401168 1.75567 37 43 55 0.818317 0.552027 -0.160073
-0.919379 0.411874 1.75567 30 42 55 0.704341 0.666524 -0.244234
-0.920668 0.413229 1.75567 30 42 55 0.692488 0.653747 -0.305082
-0.922394 0.415025 1.75567 30 43 59 0.712893 0.615458 -0.336148
-0.923261 0.416244 1.75567 30 43 59 0.772185 0.522884 -0.361001
-0.91298 0.404183 1.75567 37 43 55 0.805735 0.578892 -0.125206
-0.925409 0.419809 1.75567 36 52 69 0.701729 0.636904 -0.319263
-0.913348 0.404672 1.75567 31 42 55 0.805735 0.578892 -0.125206
-0.927706 0.422274 1.75567 36 52 69 0.681891 0.652597 -0.330367
-0.915194 0.407198 1.75567 31 42 55 0.792389 0.596884 -0.125894
-0.925003 0.419259 1.75567 27 40 59 0.797948 0.480053 -0.364455
-0.916364 0.408568 1.75567 31 42 55 0.775876 0.605153 -0.178345
-0.917776 0.410213 1.75567 31 42 55 0.721585 0.672973 -0.162547
-0.931439 0.425071 1.75567 43 54 68 0.578678 0.765758 -0.280619
-0.931706 0.425289 1.75567 43 54 68 0.651693 0.717967 -0.244582
-0.934454 0.427825 1.75567 43 54 68 0.659063 0.712543 -0.24066
-0.934963 0.428304 1.75567 43 54 68 0.669283 0.703928 -0.237792
-0.95556 0.442211 1.75567 107 68 70 0.477986 0.524619 -0.704488
-0.937469 0.430658 1.75567 63 62 65 0.656487 0.727543 -0.199263
-0.938284 0.431319 1.75567 63 62 65 0.631117 0.74074 -0.230209
-0.957055 0.44338 1.75567 107 68 70 0.341098 0.464846 -0.81705
-0.940485 0.433265 1.75567 61 59 64 0.565067 0.804424 -0.183306
-0.952545 0.439854 1.75567 64 52 60 0.424075 0.778284 -0.463071
-0.953312 0.440365 1.75567 64 52 60 0.405823 0.664225 -0.627784
-0.942456 0.434334 1.75567 61 59 64 0.435424 0.883954 -0.170383
-0.94953 0.437881 1.75567 63 53 61 0.503339 0.752549 -0.424641
-0.928424 0.422912 1.75567 39 46 59 0.580892 0.767664 -0.270661
-0.946515 0.436663 1.75567 63 57 63 0.480897 0.844241 -0.236632
-0.948283 0.43735 1.75567 63 57 63 0.383961 0.867355 -0.316653
-0.9435 0.434754 1.75567 82 52 53 0.512206 0.825991 -0.235338
-0.901288 0.384973 1.75567 37 41 49 0.969343 0.215268 -0.118461
-0.907318 0.395138 1.75394 35 43 54 0.759713 0.549131 -0.348269
-0.904303 0.389108 1.75326 39 44 53 0.832946 0.294256 -0.46863
-0.904303 0.392123 1.75512 39 44 53 0.751437 0.379794 -0.539535
-0.913348 0.404183 1.75365 33 42 55 0.807867 0.568941 -0.153808
-0.925409 0.419259 1.7549 32 48 66 0.732969 0.545197 -0.406839
-0.928424 0.422274 1.75435 32 48 66 0.636789 0.682625 -0.358501
-0.9435 0.434334 1.75403 49 52 66 0.499731 0.83186 -0.241408
-0.958575 0.440365 1.75325 49 47 59 0.305998 0.524795 -0.794327
-0.95556 0.440365 1.75433 49 47 59 0.321291 0.605448 -0.728152
-0.958575 0.44338 1.75511 114 72 74 0.438536 0.406409 -0.801573
-0.94953 0.43735 1.75411 54 53 62 0.378612 0.866056 -0.326496
-0.9435 0.435782 1.75869 62 51 56 0.538176 0.759299 -0.365829
-0.945981 0.43735 1.75869 62 51 56 0.539354 0.660331 -0.522552
-0.946515 0.437679 1.75869 69 57 61 0.416788 0.689111 -0.592802
-0.916567 0.410213 1.75869 36 42 54 0.710196 0.642864 -0.286964
-0.919327 0.413229 1.75869 36 42 54 0.700016 0.611489 -0.368861
-0.900677 0.386092 1.75869 48 52 58 0.974859 0.093139 -0.202423
-0.907318 0.397377 1.75869 35 43 54 0.753373 0.594097 -0.281918
-0.907956 0.398153 1.75869 35 43 54 0.767787 0.59959 -0.22582
